0.00344849 72.78891754 356.82055664
0.11322021 72.71777344 357.55935669
0.12440491 72.49668121 358.34365845
0.45837402 72.47136688 358.83474731
0.88775635 72.59560394 359.28134155
5.15644836 73.16090393 359.93496704
4.76100159 72.31941986 363.54071045
6.61660767 72.45328522 365.00534058
6.40873718 72.14633942 365.96926880
5.87471008 71.86442566 367.30282593
4.54493713 75.42639923 345.43920898
0.48544312 72.32859039 356.29745483
0.13923645 72.16616058 357.53558350
-0.06552124 71.68051147 359.34799194
5.41737366 72.65071869 359.66232300
4.22085571 71.52458191 364.04895020
6.28762817 71.47658539 366.05682373
5.89822388 71.31272888 367.28082275
3.92304993 74.64301300 345.16116333
3.57499695 74.47323608 346.45144653
0.51217651 71.77540588 356.27288818
0.39308167 71.65958405 357.26327515
4.47750854 71.01719666 363.78363037
6.31117249 70.92329407 366.03475952
4.18911743 74.12459564 344.86776733
3.60395813 73.90760040 346.42517090
0.76696777 71.26700592 355.99862671
0.98313904 71.12655640 357.48287964
0.53688049 70.81801605 358.76266479
4.84330750 70.88173676 362.68576050
4.50257874 70.46461487 363.76025391
6.58831787 70.63792419 364.98242188
6.33482361 70.36991119 366.01272583
4.09341431 73.62784576 344.07821655
4.21815491 73.55685425 344.84140015
3.63291931 73.34195709 346.39895630
0.79380798 70.71313477 355.97409058
0.90209961 70.64333344 356.71716309
6.29612732 71.04207611 359.59298706
6.38885498 70.96998596 360.34307861
4.52633667 69.91172028 363.73840332
6.74763489 69.97624969 364.76071167
6.59410095 69.86016846 365.74835205
4.12315369 73.05969238 344.05114746
4.24789429 72.98908997 344.81439209
3.56291199 72.62342072 346.42193604
1.04864502 70.20312500 355.69973755
1.03602600 70.02057648 357.43460083
5.36180115 69.86107635 362.14846802
4.78428650 69.40218353 363.47134399
6.85400391 69.34950256 365.48309326
4.51406860 72.46815491 344.52084351
3.49221802 71.90518951 346.44561768
3.38316345 70.97372437 351.72418213
1.07553101 69.64855957 355.67520142
4.32575989 70.96959686 353.35522461
1.12898254 69.41467285 357.30795288
0.97332764 69.10059357 358.24252319
6.34710693 69.92452240 359.54611206
6.20204163 69.80916595 360.54629517
5.09750366 69.07664490 362.34872437
4.80879211 68.84874725 363.44873047
6.47587585 68.89411163 364.21493530
6.79579163 68.86604309 364.71585083
7.11462402 68.83778381 365.21710205
4.54393005 71.89958954 344.49380493
3.52116394 71.33958435 346.41934204
3.35665894 70.22586060 351.67663574
3.23464966 70.11200714 352.68682861
1.10246277 69.09389496 355.65066528
1.77690125 69.04262543 356.63766479
1.52610779 68.81950378 358.62243652
6.50859070 69.25814056 359.31774902
6.40933228 69.10816193 360.25064087
4.74377441 68.36503601 362.68319702
4.83335876 68.29518890 363.42620850
7.05679321 68.35327148 364.44869995
4.23590088 71.13217926 344.78433228
3.55082703 70.77388763 346.39242554
3.15069580 69.62073517 351.90914917
2.93005371 69.35764313 352.96496582
1.12940979 68.53914642 355.62615967
1.80308533 68.48760986 356.61380005
4.26684570 68.41493988 359.09033203
5.09150696 67.78336334 363.15911865
4.16426086 70.41151428 344.80831909
3.81532288 70.25299072 346.10144043
3.64642334 69.14704132 351.36770630
2.62629700 68.60501862 353.24261475
1.49334717 67.95851135 356.09561157
1.14149475 67.80714417 357.33889771
4.42835999 67.96945190 358.06881714
4.76016235 67.94268036 358.56750488
5.64103699 67.49510193 361.78738403
5.35025024 67.27056885 362.89123535
6.54870605 67.22816467 364.14739990
4.07992554 69.73078918 345.81042480
3.67381287 68.58506775 351.34301758
1.52030945 67.40345001 356.07110596
1.53524780 66.97212219 357.65026855
1.86824036 66.94571686 358.14450073
4.45388794 67.41196442 358.04553223
4.78573608 67.38510132 358.54418945
7.15208435 67.59462738 359.49868774
4.90693665 66.63400269 363.35842896
4.58195496 69.25157166 345.25222778
5.51487732 69.28706360 346.96368408
3.70187378 68.02308655 351.31759644
3.29013062 67.68476105 352.56430054
1.77709961 66.88934326 355.79550171
1.88330078 66.82238770 356.54101563
1.89437866 66.39189148 358.12072754
6.74714661 66.91138458 359.01782227
4.84281921 66.14807129 362.59216309
4.64851379 65.96560669 363.60180664
4.84921265 68.72700500 344.95806885
4.73185730 68.61559296 345.98968506
5.08770752 68.59126282 346.48815918
5.20516968 68.52342987 347.25155640
3.17369080 67.01059723 352.65606689
1.66136169 66.22126770 355.88577271
1.81103516 66.11882019 356.56289673
1.81811523 65.90435791 357.35217285
1.68026733 65.88322449 358.39785767
6.53495789 66.31041718 359.24606323
4.20223999 65.21770477 363.14682007
4.05853271 65.11131287 364.13229370
4.87843323 68.15799713 344.93176270
4.65950012 67.89623260 346.01312256
4.82365417 67.79287720 346.70434570
4.89524841 67.76168823 347.53927612
3.31022644 66.38362885 353.38406372
1.73930359 65.41569519 356.58410645
1.84429932 65.34983063 357.32843018
1.71795654 65.24446106 358.32104492
4.56945801 65.06681824 362.04769897
3.99507141 64.62587738 363.36810303
4.08308411 64.55915070 364.10983276
5.38381958 67.67418671 344.36947632
4.46960449 67.06855011 347.06405640
3.80418396 65.90441132 352.84738159
2.31837463 65.30075073 355.21875000
1.87059021 64.79518890 357.30465698
1.74417114 64.69082642 358.29733276
3.93887329 64.35346222 361.81594849
3.92982483 64.13933563 362.60345459
4.01965332 64.07314301 363.34558105
4.10768127 64.00690460 364.08737183
4.49871826 66.50183105 347.03784180
5.99681091 66.77037048 348.17358398
1.94412231 64.57097626 355.58346558
1.79264832 64.30541992 356.53579712
1.89758301 64.24044800 357.28018188
4.93795776 64.36997986 360.07052612
3.63258362 63.61392212 362.08236694
3.95515442 63.58615112 362.58029175
4.04420471 63.52040863 363.32312012
4.13218689 63.45467377 364.06488037
4.64605713 66.04159546 345.98321533
4.52784729 65.93489838 347.01165771
5.68495178 66.01020050 348.46090698
4.89195251 65.30552673 350.91311646
5.00050354 65.23966980 351.67208862
1.94387817 63.85285950 355.51358032
1.81970215 63.75014496 356.51132202
1.92385864 63.68562317 357.25643921
2.02630615 63.62092590 358.00119019
3.90280151 63.52337646 360.23648071
3.99612427 63.45793152 360.98208618
3.97973633 63.03273010 362.55783081
4.06951904 62.96752167 363.29998779
4.15673828 62.90223694 364.04248047
4.67524719 65.47355652 345.95706177
4.55696106 65.36788940 346.98553467
4.91001892 65.34284210 347.48397827
5.26148987 65.31762695 347.98370361
5.61203003 65.29222870 348.48388672
4.34854126 64.51323700 351.45336914
2.63098145 63.66716766 354.89248657
1.84599304 63.19472504 356.48764038
1.80816650 63.02043152 357.34548950
1.72445679 62.88261414 358.27072144
3.83326721 63.03289032 359.46731567
3.82824707 62.82076263 360.25765991
3.92153931 62.75593567 361.00329590
4.05868530 62.65465546 361.67956543
4.00509644 62.47935104 362.53463745
4.09413147 62.41458893 363.27749634
4.94154358 64.94544983 345.66445923
4.58615112 64.80084229 346.95935059
4.60037231 64.58605957 347.77099609
4.61341858 64.37142944 348.58145142
5.06440735 64.49571991 349.03225708
2.37133789 62.88788605 355.09774780
1.87309265 62.63926697 356.46316528
1.88090515 62.21879196 358.04327393
3.19598389 62.10964584 360.02856445
3.52221680 62.08203888 360.52593994
3.84754944 62.05438995 361.02374268
3.93957520 61.99016953 361.76818848
4.02975464 61.92580795 362.51223755
4.11877441 61.86154938 363.25509644
4.52804565 63.86995697 347.79327393
4.64245605 63.80557251 348.55532837
4.75569153 63.74121857 349.31619263
3.72416687 63.22587585 351.21163940
4.06817627 63.19986725 351.70965576
2.25544739 62.22023392 355.18774414
2.13021851 62.12027740 356.18756104
2.23344421 62.05693054 356.93457031
2.00820923 61.60150146 358.76309204
3.22212219 61.55522537 360.00473022
3.54772949 61.52756500 360.50280762
3.87303162 61.49981689 361.00057983
4.19656372 61.47194290 361.49951172
4.21038818 61.25326157 363.13122559
4.76367188 63.76903534 345.87777710
4.64456177 63.66628265 346.90710449
4.32124329 63.26526642 348.03067017
4.67086792 63.23959351 348.52984619
4.78407288 63.17572784 349.29083252
3.98689270 62.70090485 350.92697144
4.09634399 62.63728333 351.68426514
5.25152588 62.65946960 352.16671753
2.38742065 61.60009384 355.91189575
1.93061829 61.31905365 357.20605469
1.93344116 61.11023712 357.99581909
1.80464172 61.01212692 358.98806763
3.47933960 61.03622437 359.73333740
4.22204590 60.91726303 361.47634888
4.54461670 60.88914108 361.97558594
4.53356934 60.67946243 362.76312256
4.45500183 63.01303864 346.16583252
4.57160950 62.94952393 346.93014526
4.35040283 62.69924164 348.00454712
4.69995117 62.67346191 348.50375366
4.81245422 62.61003113 349.26544189
4.01513672 62.13771057 350.90164185
4.12461853 62.07458878 351.65896606
2.18896484 60.79962921 356.93008423
1.73095703 60.52083588 358.22048950
3.40855408 60.54359436 358.96429443
3.50485229 60.48105621 359.71026611
4.71337891 60.43243027 360.95898438
4.23727417 60.15358734 362.24151611
5.68287659 62.85836792 344.90213013
4.26390076 62.19595337 347.21643066
4.37886047 62.13306046 347.97912598
4.72839355 62.10726547 348.47839355
4.84162903 62.04430389 349.23937988
4.04341125 61.57451630 350.87634277
4.15214539 61.51171875 351.63439941
1.75730896 59.96680069 358.19683838
3.43484497 59.98797607 358.94042969
3.53117371 59.92583847 359.68649292
4.20681763 59.71049500 361.45834351
4.59553528 59.77949524 361.92926025
4.75144958 61.91478348 345.84640503
4.52861023 61.66599274 346.92636108
4.40802002 61.56682587 347.95312500
4.75759888 61.54094315 348.45233154
4.76795959 61.33004761 349.26193237
4.54132080 61.08312225 350.33129883
4.18037415 60.94882965 351.60910034
5.33557129 60.96754837 352.09121704
2.13804626 59.74917984 356.13635254
1.91172791 59.50787354 357.17852783
2.01313782 59.44664001 357.92401123
3.46119690 59.43214417 358.91665649
3.55671692 59.37045288 359.66339111
4.76440430 59.32059097 360.91256714
4.78082275 61.34626389 345.82028198
4.55786133 61.09865189 346.90026855
4.43725586 61.00048447 347.92709351
4.78678894 60.97460938 348.42630005
4.67861938 60.45658112 351.06564331
1.83558655 59.01350403 356.40829468
1.93879700 58.95270920 357.15417480
2.03953552 58.89192200 357.90039063
3.48683167 58.87618637 358.89358521
3.35136414 58.78153992 359.88796997
3.76864624 58.69240952 361.13180542
5.26838684 61.06006622 344.44424438
4.23489380 60.55700684 346.37515259
4.58709717 60.53122711 346.87420654
4.70242310 60.46973419 347.63739014
4.81535339 60.40802002 348.40090942
5.16390991 60.38189697 348.90057373
5.51089478 60.35564423 349.40139771
2.75355530 58.84856033 355.53833008
1.96519470 58.39738083 357.13052368
2.06596375 58.33699036 357.87673950
3.28179932 58.28725815 359.11862183
3.04609680 58.04864502 360.15600586
3.13951111 57.98807526 360.90072632
3.27516174 57.89004517 361.57727051
5.29855347 60.48960876 344.41744995
4.50062561 60.02477264 346.08312988
4.61645508 59.96369934 346.84811401
4.73176575 59.90260315 347.61132813
4.84458923 59.84140396 348.37490845
5.24514771 59.56847763 349.61407471
4.97088623 59.36266708 350.75509644
5.07765198 59.30150604 351.51553345
2.63648987 58.18285370 355.62869263
1.99234009 57.84201813 357.10614014
2.09307861 57.78212738 357.85235596
3.21131897 57.79187775 358.34817505
3.53959656 57.76412964 358.84603882
2.97181702 57.34951019 360.17639160
3.06523132 57.28942871 360.92114258
3.38787842 57.26127243 361.41909790
4.98820496 59.73542023 344.70819092
4.52998352 59.45664215 346.05706787
4.64646912 59.39602661 346.82138062
4.99703979 59.36994171 347.32159424
5.01565552 58.95292282 348.94601440
5.12648010 58.89233017 349.70770264
4.99858093 58.79761124 350.73046875
1.91645813 57.34596252 356.33593750
2.01889038 57.28650665 357.08251953
2.90925598 57.26343155 357.82626343
3.23776245 57.23566055 358.32446289
3.10331726 57.14402390 359.32006836
2.76710510 56.76373672 360.40060425
3.09077454 56.73564148 360.89813232
3.41337585 56.70739365 361.39605713
4.67851257 58.98280716 344.99826050
4.56008911 58.88847351 346.03030396
4.67578125 58.82829666 346.79537964
4.79043579 58.76813507 347.55932617
5.04483032 58.38649750 348.92001343
5.15492249 58.32635880 349.68237305
5.26335144 58.26606750 350.44448853
5.13642883 57.96535110 352.27230835
3.53042603 57.27105331 354.70526123
2.27511597 56.76239777 356.80844116
2.88931274 56.54130936 358.66259766
3.02842712 56.44430542 359.34121704
3.02368164 56.24089050 360.12966919
3.11633301 56.18165970 360.87512207
3.43888855 56.15350342 361.37304688
4.70797729 58.41347504 344.97219849
4.44192505 58.21067810 346.12573242
4.60232544 58.11304474 346.81799316
4.95272827 58.08676147 347.31793213
4.72651672 57.84653854 348.39398193
5.07334900 57.81990814 348.89465332
4.94766235 57.72721481 349.91836548
3.02723694 56.55179977 355.21798706
2.76310730 56.26839447 356.28146362
2.63276672 56.17858505 357.28125000
2.95486450 55.74501801 359.36083984
3.04930115 55.68642426 360.10665894
3.14189148 55.62768173 360.85211182
3.46444702 55.59944153 361.35003662
4.97535706 57.87733459 344.67721558
4.52873230 57.39818573 346.84051514
4.87829590 57.37163925 347.34109497
4.75576782 57.27992630 348.36788940
4.86653137 57.22067261 349.13104248
5.66268921 57.10763931 350.89584351
2.91934204 55.79993057 355.25442505
2.78968811 55.71097565 356.25775146
2.89015198 55.65273666 357.00674438
2.98876953 55.59445572 357.75527954
3.31724548 55.56671906 358.25335693
2.98056030 55.18993759 359.33779907
3.30590820 55.16177750 359.83572388
3.62962341 55.13351059 360.33465576
4.76834106 57.27443314 344.91876221
4.88562012 57.21564865 345.68536377
4.78506470 56.71318817 348.34191895
4.89579773 56.65443420 349.10504150
5.48426819 56.24855423 350.96530151
5.45657349 56.30471802 351.93859863
2.44247437 55.01765060 356.59857178
2.35601807 54.89215469 357.52783203
3.24295044 54.86616516 358.27362061
3.23744202 54.66436768 359.06567383
3.65524292 54.57834625 360.31161499
4.81198120 56.49959564 345.70782471
4.58753967 56.26272583 346.78851318
4.93766785 56.23612976 347.28836060
4.81370544 56.14628601 348.31671143
4.92439270 56.08805084 349.07977295
5.38191223 55.59376144 351.96035767
3.50538635 54.83916855 354.66748047
1.95318604 54.22070313 357.05136108
2.05282593 54.16374207 357.79824829
3.72625732 54.16687012 358.54342651
3.82058716 54.10942459 359.29205322
3.91294861 54.05206299 360.04019165
3.68882751 53.42173386 364.34045410
4.97395325 55.81499100 345.46444702
4.61759949 55.69485092 346.76181030
4.96710205 55.66820908 347.26232910
5.07936096 55.61034012 348.02700806
5.18984985 55.55252075 348.79132080
5.41033936 55.02917099 351.93505859
3.00140381 54.12445450 355.18118286
1.75074768 53.63640594 357.27783203
2.07931519 53.60851669 357.77468872
3.98457336 53.63859940 358.26962280
3.84631348 53.55304337 359.26901245
2.80570984 52.65370178 364.36022949
5.11978149 55.18817902 346.20431519
4.99653625 55.10007858 347.23632813
5.34506226 55.07328796 347.73727417
5.01104736 54.69338608 348.86187744
5.91140747 54.52413940 351.39065552
2.19288635 53.37505341 356.02883911
2.00692749 53.10930634 357.00350952
2.10652161 53.05325317 357.75033569
4.01110840 53.08119965 358.24584961
3.87275696 52.99663162 359.24533081
2.78984070 52.40387726 362.80017090
2.53468323 51.98117828 364.60781860
4.91259766 54.58884048 346.44451904
5.37449646 54.50506973 347.71130371
3.85322571 53.43592453 353.52441406
2.49459839 52.80790329 355.68222046
2.26315308 52.58101654 356.72897339
2.13308716 52.49792099 357.72683716
2.48574829 51.68319702 363.06335449
2.47311401 51.48609924 363.84606934
2.55931091 51.43093109 364.58557129
5.64089966 53.96617126 347.42071533
2.54150391 52.58649063 353.10467529
2.94622803 52.65481949 353.57168579
2.74993896 52.47572327 354.61047363
3.08316040 52.44782639 355.10888672
2.29045105 52.02455139 356.70471191
2.38970947 51.96942902 357.45272827
2.52207947 51.32815933 362.25741577
2.18246460 50.96416092 363.32611084
2.49847412 50.93541336 363.82318115
5.55873108 53.45323944 346.62762451
5.13673401 53.15512466 347.89981079
2.90228271 52.19741821 352.77838135
2.67448425 51.97170639 353.83309937
2.77746582 51.91666031 354.58615112
2.77853394 51.71891785 355.38211060
2.54734802 51.49463654 356.42938232
2.64634705 51.43993378 357.17861938
2.45790100 50.83039093 361.49151611
2.43586731 50.43875885 363.06027222
2.52317810 50.38447571 363.80099487
2.49075317 51.52098083 352.30151367
2.59738159 51.46653748 353.05535889
2.70213318 51.41204071 353.80874634
2.80433655 50.96359253 356.15405273
2.90367126 50.90931320 356.90365601
2.34060669 50.17495346 361.57843018
2.37289429 49.94108200 362.29562378
3.00602722 49.88330460 363.29223633
5.61784363 52.31398773 346.57571411
2.51919556 50.96038055 352.27655029
2.62573242 50.90643311 353.03036499
2.49922180 50.82627106 354.03890991
2.93040466 50.35187149 356.88006592
2.63909912 49.60854340 361.24139404
2.39845276 49.38907623 362.27276611
6.10562134 51.66207886 347.81994629
2.54756165 50.39968872 352.25152588
2.32124329 50.17829895 353.30661011
2.19564819 50.09946060 354.31329346
3.65518188 50.06614685 355.30163574
3.41984558 49.84475708 356.35202026
2.90336609 49.27344131 360.18496704
3.22428894 49.24477386 360.68405151
3.37132263 48.75002289 363.74597168
4.64770508 50.85887909 346.64916992
5.68791199 50.77635956 348.15487671
2.80760193 49.86418915 351.96902466
2.24751282 49.47665405 353.32727051
2.12257385 49.39904785 354.33334351
3.25076294 48.69004822 360.66049194
3.34873962 48.55127716 361.35287476
3.22521973 48.30288696 362.23599243
3.54202271 48.27387619 362.73513794
3.77160645 48.32313156 363.36972046
5.37159729 50.23539352 347.62661743
5.71740723 50.20783234 348.12899780
2.83605957 49.30279922 351.94403076
2.37991333 48.86475754 354.05520630
4.60937500 49.10940170 355.20089722
3.18588257 48.18753815 359.89071655
3.27648926 48.13526917 360.63757324
3.39280701 47.82467651 361.22201538
3.25080872 47.74951553 362.21304321
3.56683350 47.72043991 362.71289063
5.52105713 49.94298172 345.75003052
5.40118408 49.66675949 347.60070801
5.51025391 49.61371613 348.36688232
2.63288879 48.71697998 352.17675781
2.53408813 48.38137817 353.02221680
2.63856506 48.32948685 353.77554321
4.87117004 48.57223892 354.92138672
3.44270325 47.65521240 359.61923218
3.62759399 47.43835831 360.17614746
3.27571106 47.19596481 362.19082642
3.59243774 47.16693878 362.68997192
5.20991516 49.20330811 346.03836060
5.08483887 49.12569809 347.07229614
5.43077087 49.09804153 347.57479858
5.30378723 49.02065659 348.60412598
3.35641479 48.22701263 351.37881470
2.56246948 47.82117462 352.99728394
2.66615295 47.76972198 353.75131226
3.53201294 46.66461563 361.92175293
5.23896790 48.63332748 346.01324463
5.11444092 48.55686188 347.04644775
5.56941223 48.47705078 348.31515503
2.68992615 47.59457016 352.12689209
4.59458923 47.47671890 354.37112427
4.92578125 47.44825745 354.87329102
1.59672546 46.16152573 360.64309692
1.68840027 46.11130905 361.38555908
3.32696533 46.08889771 362.14505005
6.56787109 48.13163757 345.42102051
2.32243347 46.88081741 351.57800293
2.57395935 46.93182373 352.21728516
2.61859131 46.70041656 352.94812012
2.95329285 46.67215729 353.44662476
4.88241577 46.67601776 353.92489624
4.84956360 46.74441528 354.89410400
1.53033447 45.65872192 359.87609863
1.52201843 45.46982956 360.66229248
1.38615417 45.39934921 361.64987183
2.76481628 46.59457779 350.30468750
1.97613525 46.19649506 351.92608643
2.08251953 46.14653015 352.68005371
4.57742310 46.14186859 353.39828491
4.44299316 46.06967163 354.41235352
1.12805176 44.80738068 360.18402100
1.53945923 44.72937775 361.42306519
4.92936707 46.62435150 347.17166138
2.00471497 45.63588715 351.90127563
1.88069153 45.56522751 352.91162109
4.37196350 45.55770874 353.63027954
1.48889160 44.60114670 359.08538818
1.56512451 44.17747879 361.40032959
4.78897095 45.97355652 347.30218506
2.38658142 45.16606522 350.60449219
2.03327942 45.07528687 351.87643433
1.90913391 45.00563431 352.88681030
4.16723633 44.97461319 353.86163330
1.14596558 43.92903137 359.41955566
1.18026733 43.70267105 360.13790894
1.50006104 43.67367554 360.63452148
1.59075928 43.62549973 361.37756348
5.05369568 45.42657471 347.01208496
2.41519165 44.60375595 350.57958984
2.06176758 44.51458359 351.85162354
1.93768311 44.44582748 352.86203003
1.20674133 43.15012741 360.11456299
1.52583313 43.12108994 360.61181641
5.08474731 44.85755157 346.98480225
2.21383667 44.02157974 350.81295776
2.17564392 43.87382507 351.68524170
2.09385681 43.76617813 352.62597656
1.46049500 42.61574554 359.84423828
1.55233765 42.56845856 360.58840942
4.64302063 44.24781799 347.48937988
2.47396851 43.47896957 350.52850342
2.24908447 43.08538055 352.39035034
1.72244263 42.26534271 358.78573608
1.71432495 42.08025742 359.57379150
4.67343140 43.67973328 347.46292114
2.60946655 42.86917877 351.26107788
2.02345276 42.76611328 352.78778076
2.28829956 41.51462555 359.80160522
2.72312927 42.22632599 351.09432983
2.63999939 42.12108612 352.03817749
2.74304199 42.07440186 352.79479980
2.84492493 42.02783203 353.55026245
2.42747498 41.28170395 358.94631958
5.20388794 42.58033371 346.88189697
3.36172485 41.79799652 350.43414307
2.56552124 41.42064667 352.05828857
2.66850281 41.37446594 352.81481934
2.77027893 41.32839203 353.57022095
2.91304016 40.75943375 358.42440796
3.23399353 40.73029709 358.92486572
4.93626404 41.81127167 347.09561157
4.66065979 41.64725113 348.24569702
3.39117432 41.23405075 350.40850830
2.69706726 40.81346130 352.79000854
3.02914429 40.78463745 353.29006958
3.74502563 40.57336426 356.81036377
3.40060425 40.23524475 357.90023804
4.81729126 41.14282227 347.18960571
3.11988831 40.56092453 350.67257690
2.85365295 40.31390762 351.75094604
2.72567749 40.25245667 352.76519775
3.01092529 39.75148773 356.62405396
3.19667053 39.66177368 358.12759399
3.28747559 39.61706161 358.87792969
4.61344910 40.55735397 347.42715454
2.54760742 39.78054810 351.22622681
2.88232422 39.75171280 351.72616577
2.98487854 39.70696259 352.48382568
1.91593933 38.85864639 357.69000244
4.87466431 40.19011688 346.32189941
4.40824890 39.97266769 347.66632080
3.71093750 39.55717850 350.07302856
2.91107178 39.18940735 351.70135498
1.39294434 38.31764984 357.41754150
1.71498108 38.28843307 357.91629028
1.58082581 38.23083878 358.91223145
4.79994202 39.48074722 346.34234619
3.40226746 39.02106476 349.54690552
3.40306091 38.83881760 350.35382080
3.17126465 38.64185333 351.41796875
1.46769714 37.90075684 356.53347778
1.41976929 37.76221848 357.39431763
1.74244690 37.73307037 357.89224243
1.50553894 37.54043579 358.93090820
4.02067566 38.72669220 347.15936279
4.12869263 38.68284607 347.92529297
3.32838440 38.13657761 350.37344360
3.43150330 38.09307861 351.13461304
1.35591125 37.42782974 355.82962036
1.35142517 37.24919128 356.62173462
1.44737244 37.20665359 357.37033081
1.76930237 37.17743683 357.86892700
3.94577026 38.02019501 347.17993164
3.12554932 37.55857468 350.60848999
3.46102905 37.52954102 351.10906982
1.28135681 36.73503113 355.84881592
1.15130615 36.68017578 356.84899902
1.47422791 36.65101624 357.34707642
3.95684814 37.35318375 348.94732666
3.61851501 37.02144623 350.06329346
3.48979187 36.96574402 351.08422852
0.98342896 36.20752716 355.32684326
1.30908203 36.17836380 355.82485962
1.26261902 36.04248810 356.68591309
1.39978027 35.95999146 357.36517334
1.61865234 35.79516220 357.90612793
4.23991394 36.89790344 346.86328125
3.98362732 36.42749786 350.53976440
1.23941040 35.66273499 355.04943848
1.33747864 35.62165451 355.80017090
4.27055359 36.32943344 346.83703613
1.16744995 35.14598465 354.27441406
1.26722717 35.10536194 355.02554321
1.36524963 35.06467819 355.77633667
1.46134949 35.02417374 356.52670288
4.30043030 35.76088715 346.81149292
3.59526062 35.45502472 349.28097534
5.29742432 35.49066925 350.06237793
1.52323914 34.55877686 354.74798584
1.39297485 34.50771713 355.75244141
1.71679688 34.47845840 356.25143433
1.83432007 34.17924500 356.83520508
4.56498718 35.20382309 346.52041626
3.63269043 34.80199814 349.19854736
5.10711670 34.73655701 350.18481445
1.77937317 34.01109695 354.47042847
4.59567261 34.63454819 346.49411011
3.09373474 34.07872772 349.74044800
2.03610229 33.46227646 354.19201660
2.78285217 33.36425781 355.94625854
4.05180359 33.90708160 347.04483032
3.81970215 33.72025299 348.12078857
2.85714722 33.06656265 353.35836792
2.94609070 32.85349274 354.91412354
2.80995178 32.80532455 355.92291260
3.97566223 33.20221710 347.06573486
3.61730957 33.14346695 348.35778809
2.92747498 32.46337128 353.26306152
2.87820435 32.33192062 354.13433838
2.74359131 32.28464127 355.14465332
3.06791687 32.25519943 355.64556885
4.31124878 32.73456192 346.74337769
3.41491699 32.56779861 348.59475708
2.71052551 31.84721184 352.59613037
2.57904053 31.80080223 353.60952759
2.67613220 31.76295280 354.36529541
2.77145386 31.72517204 355.12069702
3.09576416 31.69573402 355.62149048
4.50379944 32.08343887 346.48361206
3.33927917 31.86629677 348.61502075
1.20515442 31.09981728 353.32308960
2.70478821 31.20284081 354.34057617
2.79934692 31.16551018 355.09667969
3.12362671 31.13606071 355.59750366
4.29893494 31.33224678 347.53741455
1.08871460 30.44939804 353.41262817
1.18846130 30.41279030 354.16546631
3.63189697 30.74172020 348.30090332
1.12171936 30.22980881 351.79220581
0.78973389 29.92020035 352.88955688
0.89013672 29.88398743 353.64297485
1.21641541 29.85452652 354.14163208
3.32305908 30.03312302 348.58425903
1.04705811 29.53641319 351.81127930
0.59223938 29.35524178 353.11962891
0.91879272 29.32568550 353.61843872
1.24510193 29.29612160 354.11706543
1.57037354 29.26660538 354.61611938
3.58578491 29.47338486 348.29544067
0.74588013 28.83771133 352.08602905
0.62104797 28.79682922 353.09515381
0.94750977 28.76726913 353.59396362
1.27375793 28.73771477 354.09249878
0.54821777 28.27298737 352.31735229
0.64982605 28.23832703 353.07070923
0.97627258 28.20876312 353.56951904
1.19834900 28.04681587 354.11108398
0.99781799 27.84599495 350.99496460
0.80363464 27.71849632 352.03717041
0.73085022 27.19268417 351.25643921
0.83325195 27.15884590 352.01202393
1.16139221 27.12912941 352.51110840
4.17434692 27.38264656 346.85253906
0.98733521 26.63591766 350.97430420
1.08935547 26.60251427 351.73098755
1.19030762 26.56932259 352.48663330
4.50411987 26.67380333 354.13037109
3.86442566 26.67612839 347.13781738
1.47251892 26.08121300 350.43264771
1.11900330 26.04216194 351.70590210
1.21917725 26.00941467 352.46218872
3.90229797 25.90799522 352.92800903
4.44015503 26.14369774 353.34524536
4.38410950 26.02133369 354.22042847
3.89517212 26.10795212 347.11169434
1.14797974 25.48166084 351.68145752
3.79351807 25.31022644 353.92010498
3.92602539 25.53967667 347.08563232
1.53140259 24.95705795 350.38311768
1.63343811 24.92508507 351.14135742
3.59059143 24.74609947 354.15194702
3.95613098 24.97122955 347.06033325
1.78924561 24.39631844 350.09924316
3.56730652 24.27948952 351.58813477
3.76864624 24.38014793 352.30709839
3.90472412 24.30532837 352.99703979
3.84963989 24.18561554 353.87203979
3.87969971 24.27024651 347.07989502
1.81912231 23.83346558 350.07406616
3.69128418 23.68465996 352.32608032
3.78576660 23.65391350 353.08682251
3.80328369 23.56955719 347.09936523
2.07777405 23.27108574 349.78936768
4.06912231 23.41516876 351.19271851
3.72018433 23.12116241 352.30142212
3.66667175 23.00349808 353.17660522
3.13761902 23.00047302 347.86593628
2.10763550 22.70753670 349.76422119
4.11097717 22.67477989 351.05291748
3.74914551 22.55756187 352.27673340
3.63191223 22.43331718 347.31262207
1.90869141 22.14443016 349.99865723
3.91502380 22.02245712 351.22988892
3.31629944 21.99528122 352.76727295
3.43037415 21.86620903 347.55117798
3.48123169 21.46007919 351.72363281
3.00851440 21.30360413 353.04318237
3.54351807 21.21063232 347.38006592
3.18356323 20.92624474 351.19586182
2.83699036 20.63956451 352.30178833
2.70146179 20.61347580 353.31857300
2.88496399 20.39225006 350.66854858
2.63623047 20.07956696 352.53472900
1.82066345 19.78896523 349.18136597
2.80911255 19.69867516 350.68640137
2.56938171 19.54460526 351.75061035
3.68170166 19.62038994 346.41610718
3.55180359 19.59591293 347.44964600
3.20794678 19.31152725 348.56823730
2.86291504 19.02848244 349.68301392
2.50213623 19.00861740 350.96463013
2.59915161 18.98206139 351.72540283
2.92396545 18.95194626 352.22811890
3.26597595 18.79492188 346.74523926
3.46946716 18.74158859 348.28015137
2.53198242 18.44547272 350.93954468
2.52133179 18.29046822 351.74432373
3.29626465 18.22688293 346.72003174
3.16223145 18.04981232 348.56085205
2.69294739 17.90337372 349.89294434
2.45509338 17.75363731 350.95788574
3.32716370 17.65889931 346.69421387
2.86114502 17.51389122 348.03234863
2.62350464 17.36422157 349.10449219
2.72293091 17.33893013 349.86776733
3.35812378 17.09082031 346.66833496
3.45922852 17.06561089 347.43734741
2.65351868 16.79916954 349.07940674
2.98266602 16.76891708 349.58212280
3.38839722 16.52257919 346.64315796
2.85028076 16.40909576 348.07861328
2.68354797 16.23402786 349.05422974
3.65074158 15.94787884 346.35269165
2.38420105 15.69925022 348.52621460
3.44979858 15.38586330 346.59219360
2.87437439 15.11987400 347.97613525
2.74366760 15.10365009 349.00399780
3.41412354 14.64413738 346.53762817
3.28398132 14.62870884 347.57025146
3.29606628 13.99304104 346.62969971
3.16575623 13.97871208 347.66223145
3.32635498 13.42480564 346.60458374
2.96557617 13.42030716 347.90005493
3.58921814 12.84736919 346.31301880
3.22621155 12.84443092 347.61196899
3.38844299 12.28834057 346.55294800
3.02603149 12.28692532 347.84988403
3.65005493 11.70959187 346.26281738
2.87817383 11.62307453 347.96508789
3.91372681 11.12971783 345.97042847
2.41151428 10.92261600 348.41281128
3.71214294 10.57143307 346.21109009
3.01039124 10.46035957 347.81744385
3.40254211 9.88809109 346.49572754
3.10174561 9.82453346 347.68261719
3.32476807 9.19373608 346.51446533
2.96275330 9.20083237 347.81109619
3.12467957 8.63852978 346.75399780
2.99301147 8.63407993 347.78610229
3.69105530 8.12701893 346.16772461
3.25364685 8.05359268 347.49761963
3.41729736 7.48846054 346.43783569
3.28399658 7.48615837 347.47256470
2.97621155 6.80910206 347.75393677
3.71002197 6.33586121 346.12145996
2.97030640 6.20087624 347.74340820
2.60131836 5.58205318 347.24264526
5.96264648 5.92454624 334.97238159
5.48957825 5.81423759 336.36947632
5.16975403 5.78292179 337.63555908
4.07780457 5.62752724 339.69168091
2.19207764 5.25898361 343.39874268
2.21775818 5.28473949 344.28308105
1.18878174 5.14071369 346.23638916
-0.99972534 4.71520233 351.04364014
-1.41859436 4.65331078 352.33666992
-1.95007324 4.64338589 353.77868652
-2.22010803 4.57152176 354.88995361
-2.12844849 4.55801773 355.63821411
0.10911560 4.49387264 356.59042358
0.67216492 4.57500839 356.88534546
1.89727783 4.46418571 358.05706787
5.68597412 5.27492428 335.25698853
4.94017029 5.14114094 336.94717407
4.27261353 5.09216309 338.59326172
3.76727295 4.94374752 339.98519897
1.46879578 4.56954670 344.14550781
1.34472656 4.57198906 345.17993164
-0.44117737 4.25198078 349.62026978
-1.81243896 4.00565910 351.85556030
-2.93064880 3.82416463 354.69921875
-2.83766174 3.81132913 355.44598389
-0.72439575 3.88168454 356.60824585
0.34095764 3.78792167 357.10696411
1.92358398 3.90798879 358.03466797
6.15576172 4.75817299 333.84347534
5.64494324 4.60949802 335.26202393
4.86135864 4.43696690 336.96826172
3.79985046 4.36889839 339.95886230
5.63368225 4.34741116 340.61215210
4.92030334 4.26053047 342.25802612
-8.03746033 -7.28882599 348.38217163
-1.00376892 3.65121055 350.22595215
-1.21371460 3.11643481 356.16299438
-0.80035400 3.20724654 356.62335205
6.07652283 4.04901123 333.86514282
5.83982849 3.92650914 334.98657227
4.31396484 3.76881528 337.54415894
4.42481995 3.75468707 338.32638550
4.06611633 3.77627635 339.65817261
5.55462646 3.64577127 340.63183594
5.18646240 3.66820788 341.96014404
3.49659729 3.46201491 344.60418701
3.08549500 3.29123378 345.84277344
-1.08670044 2.83782268 351.03958130
-3.00120544 2.72530675 355.64993286
-0.87712097 2.53311086 356.63909912
1.46073914 2.58236194 357.56262207
1.87161255 2.67425752 358.02761841
5.24786377 3.10074210 340.09707642
4.72985840 3.04810786 341.54733276
4.68055725 2.95888209 342.44717407
3.59017944 2.82096553 344.46563721
2.88587952 2.74116778 346.08319092
2.29382324 2.78475499 347.64535522
1.49028015 2.58429885 349.28088379
0.42245483 2.12311673 357.03817749
0.72975159 2.09376884 357.53930664
6.71438599 2.68480754 336.73864746
5.20643616 2.44147134 340.10095215
3.91329956 1.66339993 342.32565308
3.85409546 1.63901114 343.27282715
2.40086365 1.39158225 345.61550903
2.27098083 1.40018296 346.64895630
1.10816956 1.23467422 349.57629395
-1.41276550 0.93136477 355.57162476
16.42335510 127.46086884 369.52609253
15.87359619 127.22296906 368.41018677
15.88588047 126.58764648 368.69876099
15.91691589 126.25868225 368.28189087
16.97604370 125.60011292 369.40881348
17.57257080 125.68773651 369.83734131
15.91204834 125.51194763 368.63278198
16.98735046 124.96782684 369.69653320
17.54899597 124.86367798 370.13851929
15.35877991 125.07811737 368.15887451
15.92509460 124.97408295 368.59982300
17.00039673 124.43092346 369.66470337
17.56190491 124.32675934 370.10659790
15.37194824 124.53925323 368.12588501
15.92050171 124.29311371 368.73437500
16.45024109 123.99714661 369.19067383
17.01332092 123.89407349 369.63171387
14.89309692 124.98845673 366.07934570
15.41114807 124.26348877 367.67819214
15.89813232 123.46891785 369.03756714
16.46325684 123.46029663 369.15777588
17.02636719 123.35720825 369.59881592
12.10697937 125.46631622 363.55493164
14.32600403 124.49461365 365.63189697
14.84715271 123.77053833 367.23278809
15.39823914 123.46256256 368.05978394
16.47628784 122.92343140 369.12487793
17.03936768 122.82026672 369.56689453
12.10147095 124.56125641 364.27059937
14.33927917 123.95284271 365.59759521
14.84346008 123.02575684 367.58474731
15.41134644 122.92371368 368.02679443
15.95167542 122.74758911 368.23797607
16.48930359 122.38552094 369.09289551
11.51501465 123.85693359 364.21600342
12.08985901 123.85095978 364.32830811
12.66946411 123.65531158 365.09698486
14.33619690 123.20387268 365.95239258
14.85606384 122.57942963 367.22885132
15.93809509 122.04222870 368.29602051
16.50338745 121.94013977 368.73806763
10.99465942 123.84487152 363.22817993
11.52838135 123.31417847 364.18167114
12.10325623 123.30819702 364.29397583
12.68043518 123.20733643 364.73498535
13.80120754 123.02543640 365.05645752
14.33320618 122.45803833 366.30535889
14.86927795 122.04064941 367.19485474
15.43775940 121.93959045 367.63696289
16.51643372 121.40220642 368.70608521
10.98315430 123.13363647 363.28475952
11.54188538 122.77139282 364.14736938
13.21780396 122.22950745 365.32669067
13.79002380 122.22222900 365.44293213
14.36288548 122.12127686 365.88497925
15.45086670 121.58489227 366.95611572
15.99198914 121.31607819 367.49319458
16.53053284 120.95584106 368.35116577
10.39462280 122.42707825 363.23300171
10.98011780 122.23461151 364.00082397
11.55912781 122.13591766 364.43988037
12.70477295 122.21556091 364.33868408
13.23118591 121.68773651 365.29248047
13.80343628 121.68045807 365.40869141
14.35899353 121.43817902 366.02145386
15.46414185 121.04406738 366.92294312
15.97767639 120.51812744 367.87506104
10.41304016 121.79055023 363.52642822
10.99360657 121.69190216 363.96551514
11.55424500 121.51270294 364.35763550
12.69233704 121.50518036 364.39730835
13.24223328 121.23872375 364.93142700
13.81680298 121.13868713 365.37451172
14.90779114 120.60430145 366.44668579
15.45942688 120.36296844 367.05953979
10.42661953 121.24786377 363.49111938
11.00724792 121.14914703 363.93121338
13.25575256 120.69587708 364.89813232
13.83020020 120.59681702 365.34127808
14.92103577 120.06347656 366.41354370
15.46360779 119.79773712 366.94976807
10.43516541 120.79695129 363.12698364
11.02081299 120.60642242 363.89593506
12.12582397 120.07671356 364.96127319
13.26919556 120.15408325 364.86389160
13.83039856 119.70150757 366.23788452
14.93440247 119.52268219 366.37939453
10.44879246 120.25318909 363.09265137
11.02998447 120.15545654 363.53277588
11.58374023 119.89105225 364.06698608
12.13928223 119.53594971 364.92706299
13.80918884 118.90912628 366.43478394
11.03921509 119.70260620 363.16851807
11.57528687 119.09100342 364.45159912
13.29617310 119.06952667 364.79537964
15.55747986 118.68872070 366.01519775
11.04827881 119.24971008 362.80422974
11.60232544 118.75047302 364.02703857
13.29257202 118.38641357 364.93280029
15.54290771 118.24957275 365.09393311
11.59434509 118.18601990 363.72711182
13.84376526 117.55458069 365.35818481
14.98458862 117.71526337 364.94039917
15.55668640 117.61695862 365.38763428
11.03700256 117.56053162 363.90753174
11.61596680 117.46476746 364.34786987
12.76068115 117.53916168 364.25030518
13.33438110 117.53089905 364.36645508
14.99800110 117.17241669 364.90716553
15.57011414 117.07511902 365.35443115
10.51707458 117.53353119 362.91778564
11.62963867 116.92298889 364.31356812
13.31346130 116.70742035 364.67465210
14.43928528 116.63804626 364.75463867
15.01144409 116.62959290 364.87380981
15.58348083 116.53227234 365.32110596
9.94395447 116.76856995 363.27200317
10.47840881 116.05438232 364.79916382
11.03016663 115.79515839 365.32971191
11.60260010 115.78798676 365.44396973
13.30973816 116.02528381 364.81213379
14.45277405 116.09523010 364.72131348
15.02484131 116.08674622 364.84048462
15.59733582 115.90167236 365.61495972
9.93264771 115.85846710 363.90728760
10.51301575 115.76484680 364.34573364
11.04373169 115.25537872 365.29559326
11.62434387 115.07517242 366.05825806
13.32575989 115.39676666 365.10510254
14.46617126 115.55245209 364.68701172
15.03930664 115.45613861 365.13436890
9.40371704 115.91512299 362.59020996
9.94630432 115.31675720 363.87210083
10.50564575 114.97287750 364.72988892
11.05729675 114.71459961 365.26144409
11.63801575 114.53540802 366.02413940
13.33934021 114.85494232 365.07183838
14.47982788 115.00961304 364.65371704
15.05186462 115.00009918 364.77389526
9.41755676 115.37042236 362.55480957
9.95419312 114.86080170 363.50860596
10.49815369 114.18192291 365.11407471
11.07096863 114.17384338 365.22726440
11.65155029 113.99664307 365.99011230
14.49328613 114.46678162 364.62042236
9.37908936 114.49642944 362.70666504
9.96797180 114.31804657 363.47433472
10.51182556 113.64121246 365.07888794
11.08450317 113.63411713 365.19216919
11.65176392 113.37457275 366.00207520
9.97137451 113.65065765 363.64974976
10.52012634 113.18505859 364.71844482
11.09819031 113.09335327 365.15795898
11.62516785 112.58984375 366.10733032
12.19572353 112.58162689 366.22259521
9.41558838 113.63326263 362.13391113
9.98970032 113.31832886 363.07650757
10.53378296 112.64430237 364.68426514
11.11186218 112.55256653 365.12380981
11.68431091 112.54443359 365.23800659
10.00346375 112.77459717 363.04113770
10.54206753 112.18714905 364.32376099
11.12564087 112.01180267 365.08963013
11.66365147 111.63395691 365.82931519
9.46157837 112.98953247 361.05477905
10.00138855 112.09346771 363.17868042
10.55581665 111.64540100 364.28952026
11.66590881 110.97151184 366.00506592
9.42826843 112.02947235 361.53988647
9.98326111 111.27704620 363.48727417
10.56954956 111.10369110 364.25427246
11.13508606 110.82192993 365.08181763
9.44877625 111.40083313 361.83575439
10.03314209 111.31006622 362.27731323
10.58331299 110.56192017 364.22000122
11.13223267 110.22685242 364.96728516
10.04698181 110.76637268 362.24197388
10.59707642 110.02021027 364.18481445
10.04879761 110.03043365 362.59848022
10.61100769 109.47843933 364.15057373
11.18484497 109.47030640 364.26477051
10.05961609 109.35056305 362.92535400
11.17692566 108.87288666 364.07498169
8.92573547 109.22791290 361.58282471
9.49035645 108.89557648 362.44927979
10.06233215 108.77951813 362.81222534
10.62760925 108.55536652 363.42599487
11.20256042 108.54720306 363.54113770
10.05996704 108.10045624 362.94888306
11.21144104 108.08322144 363.17819214
10.64419556 107.62843323 362.69912720
11.23043823 107.46066284 363.47247314
9.51876831 107.42217255 361.68292236
10.08160400 107.09275055 362.55056763
10.66375732 107.00489807 362.99334717
9.50492859 106.71369171 361.74276733
10.09553528 106.54805756 362.51516724
10.67764282 106.46114349 362.95901489
12.54734802 109.53745270 355.12380981
9.52577209 106.09117889 362.03701782
10.10952759 106.00428772 362.48083496
10.66328430 105.75565338 363.01898193
11.17304993 103.26677704 370.13043213
9.53979492 105.54640961 362.00256348
10.04748535 102.90081024 369.23147583
10.59603882 102.58596802 370.07116699
11.16938782 102.42971039 370.81735229
11.94252014 107.85278320 356.16510010
10.04612732 102.06358337 369.92132568
10.61543274 101.98029327 370.35247803
11.16281128 101.81720734 370.73983765
11.95683289 107.29802704 356.13006592
8.98258972 104.54184723 361.48883057
9.50294495 101.91658020 368.73184204
10.05981445 101.53080750 369.88766479
9.49589539 101.15231323 369.10571289
10.07353210 100.99801636 369.85400391
8.99259949 102.21871185 364.86279297
9.50961304 100.61849976 369.07199097
10.05294800 100.37963867 369.59585571
11.18575954 100.28777313 370.14535522
8.98728943 101.52144623 365.03237915
9.52339172 100.08474731 369.03823853
11.17646790 99.52760315 370.51745605
7.33607483 99.83280182 368.68566895
9.53717041 99.55195618 369.00457764
10.10862732 99.47060394 369.43685913
10.67269897 99.46012878 369.55401611
7.31431580 99.33576965 368.07644653
7.86207581 98.97702789 368.94445801
9.00004578 100.58696747 364.31314087
9.53703308 99.15822601 368.33551025
10.10963440 99.07778931 368.76980591
10.67480469 99.06733704 368.88693237
11.20841980 98.75340271 369.54953003
13.11274719 102.90455627 358.25039673
7.30998230 98.81882477 367.75540161
7.87594604 98.44402313 368.90975952
9.00917053 100.30697632 363.41662598
9.55088806 98.62354279 368.30169678
10.12347412 98.54350281 368.73608398
11.20114136 98.13836670 369.47183228
7.30554199 98.05848694 368.12951660
7.88984680 97.91097260 368.87509155
10.13732910 98.00922394 368.70233154
10.64494324 97.68457031 369.00271606
6.78753662 97.98447418 367.16476440
7.31948853 97.52437592 368.09472656
7.89515686 97.44637299 368.52416992
10.13160706 97.68170929 367.71276855
10.66981506 97.34667969 368.48419189
6.77680969 97.39070129 366.97824097
7.32424927 97.05862427 367.74273682
7.90054321 96.98079681 368.17312622
10.14549255 97.14585876 367.67889404
7.33816528 96.52401733 367.70791626
7.91445923 96.44666290 368.13833618
8.48121643 96.43682861 368.25250244
10.15943909 96.60986328 367.64501953
7.34286499 96.05671692 367.35482788
7.91976929 95.97972870 367.78625488
8.47419739 95.60829926 368.83474731
10.17996216 96.00613403 367.93048096
7.36642456 95.81229401 366.58862305
7.93379211 95.44493103 367.75146484
8.46881104 94.92385101 369.00018311
7.93032837 95.04299164 367.07992554
8.50688171 94.96636963 367.51339722
7.40435791 95.02852631 365.78536987
7.93550110 94.57318878 366.72561646
8.52085876 94.43099213 367.47756958
6.81906128 94.34403992 365.73095703
7.39941406 94.26875305 366.16348267
7.94955444 94.03677368 366.69070435
8.52671814 93.96096039 367.12429810
6.81481934 93.58527374 366.10916138
7.40374756 93.44506836 366.86114502
9.10098267 93.47949982 366.88601685
6.30455017 93.43418884 365.45611572
6.83886719 92.98352051 366.39465332
7.41786194 92.90904999 366.82629395
7.99542236 92.83422852 367.25988770
6.29284668 92.83602905 365.26733398
6.84301758 92.51136780 366.03927612
7.42266846 92.43713379 366.47189331
6.27607727 92.04790497 365.57064819
6.84715271 92.03816223 365.68283081
7.43679810 91.90042877 366.43692017
8.00604248 91.89017487 366.55203247
6.86132813 91.50053406 365.64779663
7.44151306 91.42708588 366.08148193
8.02027893 91.35335541 366.51712036
6.86541748 91.02587891 365.29122925
7.45571899 90.88977814 366.04650879
9.18724060 90.66942596 367.35360718
9.69496155 90.34902954 367.65634155
12.21339417 95.00977325 354.54147339
6.87954712 90.48770905 365.25518799
7.46043396 90.41483307 365.69091797
8.03071594 90.40445709 365.80496216
10.26838684 89.86360168 367.42187500
12.19869995 94.60825348 353.43823242
7.45544434 90.00123596 365.01162720
8.01913452 89.80464935 365.61813354
8.59358215 89.63893890 366.30050659
9.14056396 89.41159821 366.83111572
10.28941345 89.26574707 367.70669556
12.18472290 93.65012360 354.45932007
6.90988159 89.84484863 363.87469482
7.46974182 89.46224213 364.97659302
8.57797241 88.94702148 366.35940552
9.15473938 88.87463379 366.79718018
10.29667664 88.79062653 367.35302734
11.60977173 92.77080536 355.51678467
6.33731079 91.58782959 356.68399048
6.97708130 91.70378113 357.11489868
7.46443176 89.04614258 364.29409790
8.06448364 88.85137939 365.37823486
8.60079956 88.34906006 366.64517212
9.16891479 88.33774567 366.76226807
9.73660278 88.32625580 366.88034058
10.31083679 88.25405884 367.31915283
11.61245728 92.34856415 354.79385376
6.36311340 90.97171783 356.98464966
6.96920776 90.83365631 357.76864624
8.05926514 88.26599884 365.22830200
8.60633850 87.87223053 366.28945923
9.18312073 87.80071259 366.72729492
9.75080872 87.78908539 366.84634399
11.62716675 91.79170990 354.75762939
5.77604675 90.30295563 357.01443481
6.95362854 90.12543488 357.83050537
8.06559753 87.95491028 364.33883667
8.61184692 87.39441681 365.93469238
9.19735718 87.26366425 366.69335938
9.76502991 87.25197601 366.81143188
10.33227539 87.24005127 366.93142700
6.36946106 87.72193146 363.21527100
6.94500732 87.37611389 364.39743042
7.55122375 89.21942139 359.00823975
8.08924866 87.35466003 364.62747192
8.62614441 86.85632324 365.89968872
9.20343018 86.78563690 366.33755493
10.32121277 86.63983154 366.74551392
6.37594604 86.90620422 363.92541504
6.95945740 86.83629608 364.36227417
7.54148865 86.76619720 364.80010986
8.63162231 86.37705231 365.54281616
9.20959473 86.30667114 365.98272705
9.77830505 86.29483795 366.10168457
10.34664917 86.28285217 366.22174072
5.83396912 86.65604401 363.14328003
6.39033508 86.36598969 363.88925171
6.97386169 86.29645538 364.32617188
7.55599976 86.22668457 364.76504517
9.20735168 85.88518524 365.30386353
9.78488159 85.81500244 365.74481201
5.81973267 85.89463806 363.41619873
6.40480042 85.82565308 363.85311890
6.98838806 85.75656128 364.29104614
8.69534302 85.78179169 364.31521606
9.22163391 85.34587860 365.26879883
9.79920959 85.27603149 365.71072388
5.82267761 85.41190338 363.05514526
6.41934204 85.28512573 363.81796265
6.99252319 85.27442169 363.93200684
7.50411987 84.95613098 364.23681641
8.10700989 85.09866333 364.25790405
8.67883301 85.08721924 364.37490845
9.22761536 84.86407471 364.91076660
5.82550049 84.92824554 362.69403076
6.42282104 84.80230713 363.45687866
8.09054565 84.40455627 364.31765747
5.84922791 86.81284332 355.22082520
6.43742371 84.26122284 363.42169189
7.02162170 84.19317627 363.86065674
7.59440613 84.18217468 363.97567749
5.87611389 86.19879150 355.52258301
6.42985535 83.83355713 362.73452759
7.01522827 83.76582336 363.17547607
7.59904480 83.69800568 363.61547852
5.27249146 85.49800110 355.47436523
5.87826538 85.50096130 355.77828979
6.43318176 83.34778595 362.37225342
7.02984619 83.22397614 363.13925171
5.85578918 84.71968079 355.98593140
6.44783020 82.80507660 362.33590698
7.04444885 82.68215179 363.10296631
7.62829590 82.61518860 363.54397583
5.92686462 84.09651184 356.89584351
6.47370911 82.20661163 362.62667847
7.02809143 81.98738098 363.16265869
7.61178589 81.92098999 363.60379028
8.19409180 81.85425568 364.04583740
0.14587402 83.11434937 357.90710449
5.89306641 83.88684845 355.13247681
6.47717285 81.71921539 362.26324463
7.58508301 81.28137207 363.33935547
8.17745972 81.16093445 364.10568237
-0.45597839 82.55490112 357.48196411
0.13500977 82.28144073 358.34484863
6.48068237 81.23054504 361.90084839
-1.04229736 81.98284149 357.26431274
-0.45181274 81.79855347 357.87326050
0.14999390 81.73497009 358.30627441
0.75048828 81.67111206 358.74029541
6.49539185 80.68691254 361.86444092
7.06127930 80.41522980 362.72970581
8.19699097 80.13240051 363.70999146
-1.04022217 81.31476593 357.40063477
-0.43679810 81.25160980 357.83367920
0.16510010 81.18836975 358.26773071
0.76556396 81.12485504 358.70278931
5.92694092 80.38162994 360.88378906
6.49891663 80.19683075 361.50088501
7.60821533 79.76182556 362.58013916
8.20190430 79.64389038 363.34857178
-1.03843689 80.64749908 357.53698730
-0.45108032 80.55193329 357.89199829
0.13516235 80.45639801 358.24807739
5.93692017 79.66374207 361.34954834
