-21.19120979 55.86127472 339.49334717
-20.26365852 55.85118866 340.15249634
-20.28741646 55.77413177 341.11645508
-19.27438164 55.23925400 345.22109985
-20.11817360 54.41341782 348.75854492
-16.46200371 55.34608078 346.26150513
-16.37465477 55.47346878 347.15692139
-25.04506683 55.09422302 336.96060181
-22.45408630 55.35316086 338.35760498
-22.08535767 55.33403397 338.81137085
-21.15628433 55.32367325 339.46636963
-20.25385857 55.23650742 341.09100342
-19.04497719 54.73155975 344.94573975
-20.47315407 53.82850266 349.22280884
-17.62335587 54.64853287 346.79400635
-25.19795418 54.53232956 337.18750000
-24.82806969 54.51332855 337.63693237
-22.50534439 54.68122864 338.37878418
-21.47043419 54.56206894 338.82656860
-21.31592178 54.75796890 339.69470215
-20.02450943 54.72669983 340.81124878
-19.01222038 54.19549561 344.92083740
-20.59727669 53.34547806 348.49475098
-17.39247322 54.13935089 346.51986694
-24.79245758 53.97909546 337.60940552
-24.42324257 53.95983887 338.05950928
-21.43553543 54.02426529 338.79959106
-19.79445267 54.21585846 340.53057861
-18.97879028 53.65927124 344.89529419
-17.91261101 53.59642029 346.28173828
-17.95386887 53.52167511 347.24160767
-25.29663277 53.19688797 337.22860718
-24.62753677 53.22954941 338.26510620
-21.40063667 53.48635864 338.77261353
-21.10382843 53.53876495 339.36581421
-19.19326591 53.60216522 340.65646362
-18.98988533 53.05523300 344.89379883
-18.32196617 52.94550323 345.84008789
-18.39036560 52.82703781 346.81481934
-24.89204979 52.64328384 337.65100098
-24.71158791 52.59785080 338.35391235
-20.99785423 52.92822266 339.20114136
-19.53744316 52.84676361 341.03277588
-18.77021408 52.22260284 346.35931396
-18.80892754 52.15020370 347.31628418
-24.85643768 52.10903168 337.62350464
-24.48749352 52.08918762 338.07330322
-19.89377975 52.25649261 341.51333618
-19.09135246 51.70854950 345.87295532
-18.93300247 51.66210938 346.58230591
-18.03135872 51.64407730 347.25888062
-24.45254898 51.55467606 338.04669189
-24.08500862 51.53452301 338.49786377
-19.85939598 51.71842194 341.48718262
-18.70156479 51.36682892 344.52322388
-18.86214256 51.19770813 345.59860229
-18.90021706 51.12692261 346.55761719
-17.99866486 51.10830307 347.23406982
-24.41678238 51.02001190 338.01916504
-24.04924011 50.99976730 338.47036743
-23.68312836 50.97947693 338.92306519
-19.82498360 51.18027496 341.46099854
-19.46319389 51.15934372 341.92053223
-18.79225349 50.73175812 344.61224365
-18.82853127 50.66167450 345.57308960
-18.86743546 50.59165955 346.53286743
-17.96645546 50.57236481 347.21005249
-23.26006699 50.87211609 336.62124634
-23.82482910 50.48880005 338.19000244
-23.64748192 50.44443512 338.89559937
-19.62462234 50.59671783 342.14739990
-18.75863647 50.19472504 344.58682251
-18.79565048 50.12540054 345.54833984
-18.72599792 49.94608688 346.30499268
-18.67838097 50.01081848 347.21823120
-23.33495522 50.30571747 335.74621582
-23.31047630 50.20125580 336.64193726
-23.28804398 50.09694672 337.53698730
-23.61231995 49.90923691 338.86895752
-22.51779556 49.84703445 340.22988892
-19.48360062 49.94809341 341.91610718
-18.52834702 49.68091202 344.31042480
-18.56621742 49.61236191 345.27395630
-23.54189301 49.57439423 335.95483398
-23.36170769 49.53062439 336.66314697
-23.18289375 49.48680115 337.37161255
-23.38668251 49.39693069 338.58813477
-22.67439079 49.28832626 340.45620728
-18.98090744 49.27742767 342.14431763
-18.69131470 49.12020493 344.53598022
-18.53257179 49.07545090 345.24859619
-18.57243156 49.00789642 346.21038818
-23.50522614 49.03651047 335.92660522
-23.32577324 48.99307251 336.63583374
-23.14696312 48.94965744 337.34414673
-22.96985817 48.90616608 338.05242920
-22.81826973 48.56899261 340.57626343
-18.94636726 48.73845673 342.11813354
-18.78203773 48.48644638 344.62503052
-18.58813858 48.40486145 345.26992798
-18.23436546 48.38277054 345.73269653
-18.33523941 48.33405304 346.78320313
-23.28904533 48.45548248 336.60769653
-23.11099625 48.41229248 337.31677246
-22.93453789 48.36916733 338.02575684
-22.77691841 47.95318604 340.49652100
-19.10795403 48.17725372 342.34500122
-18.03391647 48.11136246 343.73190308
-18.64300346 47.73462677 345.29046631
-18.52597046 47.62517166 346.96200562
-23.25304604 47.91775131 336.58032227
-23.07503319 47.87486267 337.28939819
-22.89857483 47.83210754 337.99844360
-22.72367096 47.78922653 338.70736694
-22.93270302 47.39672470 340.72238159
-19.27006340 47.61676788 342.57281494
-18.49303246 47.08949661 346.93731689
-23.30464935 47.24771500 336.60134888
-23.12663460 47.20523071 337.31048584
-22.95033455 47.16277695 338.01940918
-22.77546310 47.12028503 338.72830200
-22.37687874 46.97996140 340.04125977
-22.53672981 46.84010696 341.15145874
-19.23549652 47.07830811 342.54678345
-18.73401833 46.70394897 344.52728271
-18.57623100 46.66073227 345.24057007
-18.46002960 46.55359650 346.91287231
-17.12320328 46.63439560 346.13201904
-23.17833138 46.53590012 337.33132935
-22.81102562 46.51432800 337.78503418
-22.07945633 46.47104645 338.69503784
-22.09800529 46.40834427 339.65820313
-22.31019211 46.32533264 340.87280273
-18.70030785 46.16641998 344.50195313
-16.69281387 46.13673019 345.60589600
-22.76053810 46.03873062 336.79187012
-22.40918159 45.95499802 338.21270752
-22.04342651 45.93320084 338.66766357
-22.06326294 45.87127686 339.63241577
-22.08361816 45.80948639 340.59405518
-18.66647530 45.62879944 344.47671509
-18.83321190 45.37229538 346.44583130
-22.72444344 45.50019836 336.76455688
-22.35646439 45.47842026 337.21884155
-22.37306404 45.41713333 338.18545532
-22.00800705 45.39519119 338.64108276
-21.64365387 45.37319183 339.09735107
-19.30988884 45.19768524 342.56256104
-18.43604469 45.11038589 344.19995117
-18.88851547 44.70464325 346.46624756
-22.32024574 44.93956757 337.19152832
-22.33685112 44.87918091 338.15820313
-21.41487122 44.85415649 338.81503296
-21.62963295 44.77461243 340.03564453
-19.47060966 44.64022446 342.78921509
-18.59856606 44.55305862 344.42620850
-18.08874512 44.48844910 345.60348511
-22.47098732 44.30073166 337.36709595
-22.30139923 44.34107971 338.13168335
-21.93640709 44.31894302 338.58728027
-21.01539803 44.29298782 339.24569702
-21.42508888 44.19624329 340.71957397
-19.43656158 44.10198975 342.76403809
-18.65443993 43.88328171 344.44732666
-18.30545425 43.76284790 345.80581665
-22.26521683 43.80282974 338.10443115
-21.90007019 43.78059006 338.56005859
-20.97988129 43.75399399 339.21917725
-20.81081390 43.71319580 339.93231201
-18.70967674 43.21384048 344.46765137
-22.22894478 43.26448059 338.07727051
-21.86446381 43.24198532 338.53363037
-20.75120735 43.23240280 338.93780518
-20.96888351 43.15667343 340.16021729
-18.87160110 42.65867233 344.69329834
-21.98739243 42.49911499 337.63464355
-21.72538185 42.58993149 338.29885864
-20.80472946 42.56172943 338.95831299
-20.66146851 42.46466827 340.63931274
-19.16174889 42.29940796 343.30456543
-18.83758736 42.12114716 344.66821289
-18.48490524 42.09782028 345.13122559
-16.94586563 42.19240189 345.97872925
-21.39347267 41.95375061 337.80755615
-21.22151375 41.91426468 338.52081299
-20.85825157 41.89126205 338.97882080
-20.46148872 41.89934158 340.37411499
-19.12094498 41.66292953 343.21560669
-18.80354118 41.58354187 344.64306641
-18.45088959 41.56000519 345.10610962
-17.20052338 41.50552368 346.24929810
-19.91869926 41.56665421 339.77621460
-18.92668533 41.08509445 343.90362549
-18.76946449 41.04571533 344.61801147
-18.41687393 41.02218246 345.08096313
-16.96915054 40.98274612 345.97457886
-20.78687668 40.81174850 338.92581177
-20.42443466 40.78847885 339.38449097
-19.88299370 41.02626038 339.74972534
-19.08806801 40.53142548 344.12985229
-18.73538399 40.50778580 344.59292603
-18.38279533 40.48416519 345.05587769
-16.73707008 40.45893860 345.69906616
-20.00010681 40.27890015 338.84606934
-19.63836479 40.25540924 339.30673218
-18.85837173 40.00845337 343.85345459
-18.70121384 39.96977615 344.56790161
-16.70368195 39.91904831 345.67456055
-19.25074577 39.85457230 339.84869385
-18.77837181 39.37473297 343.71350098
-18.85729027 39.33548737 344.74011230
-17.47106361 39.20559311 345.66180420
-19.20511055 39.14910889 339.71441650
-19.23633385 39.09692764 340.68716431
-19.16405487 38.65828323 344.14477539
-19.00751114 38.62049866 344.85858154
-17.76060486 38.56171799 346.00082397
-19.00473404 38.56996536 340.40536499
-19.12982368 38.12036896 344.11972046
-18.77811432 38.09617233 344.58319092
-18.07646370 38.04769897 345.51126099
-18.96957397 38.02861023 340.37966919
-18.56111526 37.67918396 343.44219971
-18.74324226 37.55812836 344.55755615
-18.04223251 37.50948715 345.48632813
-18.93367767 37.48711395 340.35327148
-18.66976738 37.06881332 343.56588745
-18.70897865 37.01981354 344.53259277
-18.00805855 36.97106171 345.46130371
-19.09353065 36.93326569 340.58236694
-18.77781296 36.45947647 343.68893433
-18.96001625 36.34115982 344.80307007
-18.89543724 36.17650604 345.56152344
-18.59541321 36.25041580 340.81072998
-19.01590919 35.67502213 344.82302856
-18.65070534 35.57978439 340.83078003
-18.36980057 35.46183014 343.23806763
-19.17613029 35.12676239 345.04809570
-18.61551094 35.03812027 340.80508423
-18.90806389 34.64474106 343.80767822
-18.94735909 34.59948730 344.77331543
-18.57949066 34.49631119 340.77890015
-18.87306404 34.10585785 343.78216553
-19.10739708 34.05180740 344.99850464
-18.54347229 33.95441818 340.75253296
-19.03261375 33.55770493 344.00775146
-18.31187248 33.42149734 340.47158813
-18.34802246 33.37820053 341.44595337
-18.60736084 33.03671265 343.47915649
-19.15839005 32.47205353 344.20947266
-18.07991219 32.30277634 341.13912964
-19.31250954 31.82770920 344.37023926
-18.13645744 31.63288307 341.15963745
-19.46401787 31.13526535 344.49902344
-18.38945007 30.95625305 341.43527222
-18.46753311 30.87734032 343.37884521
-17.60610390 30.40193939 341.36441040
-18.52369881 30.21100616 343.39843750
-17.76732063 29.85283470 341.59396362
-18.77534866 29.53889656 343.67019653
-18.81638718 29.50171661 344.63754272
-17.73108482 29.31014442 341.56774902
-18.93536758 28.99416351 343.89715576
-18.78172684 28.96309662 344.61291504
-17.69554710 28.76737976 341.54238892
-18.50924873 28.46465111 343.36715698
-18.55191422 28.42909241 344.33728027
-18.47451973 27.92442513 343.34262085
-18.71166992 27.88541412 344.56304932
-18.58261871 27.31969070 343.46594238
-18.76824570 27.22157478 344.58251953
-17.77403450 26.88715363 341.55697632
-18.82488632 26.55804443 344.60192871
-17.54096413 26.34729958 341.27572632
-17.77994919 26.31194878 342.50711060
-18.78943062 26.01927757 344.57678223
-17.54712296 25.77234268 342.22695923
-18.75461388 25.48024559 344.55230713
-17.99687004 25.10132217 342.75439453
-18.71982765 24.94123840 344.52777100
-18.48932648 24.40339470 344.25115967
-18.01873207 23.89366913 342.74893188
-18.06286049 23.86522293 343.72229004
-17.98298645 23.35191154 342.72369385
-18.02788353 23.32440948 343.69781494
-17.94724083 22.81015396 342.69857788
-18.41602325 22.63601303 344.12881470
-17.91213608 22.26823235 342.67419434
-18.53269958 21.99793243 344.23986816
-18.07220459 21.72723007 342.90270996
-17.93396759 21.06118584 342.66879272
-18.31779861 20.97862816 344.04205322
-17.99115372 20.39655304 342.68765259
-18.42640686 20.37818909 344.16537476
-18.39127731 19.83796692 344.14105225
-17.91935349 19.31252861 342.63754272
-17.96474075 19.29141045 343.61163330
-18.07940292 18.77392387 342.86633301
-18.12452126 18.75376701 343.83926392
-18.17107773 18.15254211 342.95541382
-18.37776375 18.09574318 344.11068726
-18.43447876 17.43436241 344.12878418
-17.77547455 17.14308167 342.53759766
-18.20430374 16.88877869 343.85256958
-18.12220764 16.36433220 342.85394287
-18.16838074 16.34791183 343.82763672
-18.08621788 15.82247162 342.82907104
-18.13236427 15.80695343 343.80276489
-17.90141869 15.25923157 343.52563477
-17.81890869 14.73124981 342.52584839
-17.86542892 14.71756935 343.50082397
-17.78276253 14.18858624 342.50103760
-18.02571487 14.18345356 343.72961426
-17.74658585 13.64582729 342.47613525
-18.08352852 13.52261353 343.74822998
-18.14137650 12.86207867 343.76669312
-18.10526848 12.32091999 343.74188232
-18.02175903 11.78853893 342.74261475
-18.06982803 11.77959442 343.71786499
-17.98558426 11.24617958 342.71780396
-18.03365707 11.23812962 343.69314575
-17.94934845 10.70381355 342.69308472
-17.99751472 10.69666862 343.66842651
-17.91304779 10.16135406 342.66842651
-17.87674904 9.61869526 342.64370728
-17.92575073 9.61338711 343.61972046
-17.93551254 8.95829868 342.66271973
-17.98397064 8.95405006 343.63796997
-18.18877602 8.31099510 342.93487549
-18.04219055 8.29496479 343.65621948
-18.15244865 7.76897287 342.91030884
-18.00653458 7.75333071 343.63235474
-17.92091560 7.21312761 342.63174438
-17.97024155 7.21167088 343.60775757
-17.88449287 6.67042637 342.60711670
-17.93467903 6.66985989 343.58383179
-17.84807014 6.12763834 342.58251953
-17.99317551 6.01169252 343.60183716
-17.61582565 5.56962347 342.30313110
-18.05171013 5.35382128 343.61990356
-17.77522469 5.04178381 342.53338623
-17.73937988 4.49865675 342.50958252
-17.97966766 4.27037668 343.57150269
-17.74778366 3.71177721 343.29306030
-17.86634445 3.08421159 343.40451050
-48.15866089 136.64091492 335.16540527
-47.41323090 136.47329712 335.86145020
-48.20790863 136.02085876 334.84078979
-47.46181488 135.85522461 335.53695679
-46.71831131 135.68846130 336.23413086
-47.55087662 135.36032104 334.94686890
-46.70999908 134.79844666 336.35751343
-46.02460861 134.90245056 336.60980225
-46.87652588 134.55210876 335.23336792
-46.07247543 134.28324890 336.28823853
-45.33214951 134.11735535 336.98651123
-46.21921539 133.79389954 335.41479492
-45.30189133 133.30441284 337.17022705
-44.64106369 133.33200073 337.36618042
-45.36797714 132.77375793 336.70184326
-44.63984299 132.27806091 337.58218384
-44.02063751 132.31893921 337.57324219
-45.41632080 132.15130615 336.38415527
-43.79896164 129.38690186 343.11349487
-43.11071014 129.34829712 343.53958130
-43.70945358 128.59979248 343.57644653
-42.48959351 128.67321777 343.57324219
-43.64131927 127.79322815 343.95425415
-43.57331848 126.98866272 344.33129883
-42.96475220 127.02382660 344.33010864
-42.34981537 127.22157288 344.24337769
-41.74706650 127.09393311 344.33187866
-42.94793320 126.47618866 344.27828979
-42.22724915 126.32183075 344.96054077
-41.61931610 126.35671234 344.96340942
-41.01113510 126.39066315 344.96621704
-34.83693695 130.13854980 336.08816528
-42.93105316 125.92849731 344.22753906
-41.61570740 125.48661041 345.08810425
-41.00099564 125.68116760 345.00415039
-40.39274597 125.71395111 345.00881958
-43.68264389 125.94996643 342.97280884
-42.97108078 125.47411346 343.83352661
-41.59882736 124.93890381 345.03726196
-43.73578262 125.17112732 342.75515747
-42.95413589 124.92549133 343.78158569
-42.23898315 124.61228180 344.55361938
-41.58191681 124.39125061 344.98544312
-39.69656754 124.55697632 345.25430298
-34.02756119 127.84319305 337.21707153
-43.00068283 124.30828094 343.47720337
-41.62050629 123.93579865 344.59332275
-39.74037170 123.94078064 344.95178223
-39.04073334 123.46527100 345.81863403
-33.95980835 127.18097687 337.52642822
-32.83316803 127.10452271 337.02786255
-31.50906563 127.25714874 337.41659546
-30.76445389 126.96749878 338.42700195
-42.38083267 123.63088226 343.51580811
-41.58983231 123.24983978 344.71545410
-40.94723129 123.16786957 344.97738647
-40.33912659 123.19960785 344.98303223
-39.69755936 123.11654663 345.24594116
-39.02379227 122.91754913 345.76785278
-38.31134796 122.76555634 346.45733643
-32.14373779 126.47263336 337.35458374
-31.43621635 126.13867950 338.18664551
-30.67392349 125.87544250 339.28158569
-41.72152328 122.94542694 343.75460815
-40.93770599 122.45938110 345.01528931
-40.32971954 122.49012756 345.02093506
-39.66767883 122.43051910 345.36901855
-39.00657272 122.36981201 345.71801758
-38.29419327 122.21784973 346.40756226
-37.18395233 122.45890045 345.75280762
-32.00205231 125.28301239 338.57019043
-31.33383751 125.21584320 338.94683838
-30.61986542 125.05117035 339.68164063
-41.62504196 122.38195801 344.09939575
-41.08649826 122.18338776 343.94122314
-40.32067871 121.78146362 345.06091309
-39.65869522 121.72193146 345.40802002
-38.89935684 121.32112122 346.52380371
-38.29327774 121.35045624 346.53543091
-37.68710709 121.37973785 346.54800415
-31.26842308 124.55769348 339.25448608
-30.64868164 124.58569336 339.27676392
-47.62929535 126.35411072 332.44686890
-47.00334549 126.39356232 332.43069458
-46.25371933 126.23828125 333.13943481
-45.51300430 125.91786957 333.94171143
-40.45988464 121.66451263 343.89486694
-39.32810974 120.47882843 347.47518921
-31.87017632 123.96877289 339.18447876
-31.17764091 123.47483063 340.10552979
-47.62154007 125.54154205 332.53173828
-46.81195068 125.21018982 333.64498901
-46.12611389 125.15220642 333.99172974
-45.44137573 125.09413910 334.33959961
-43.40716553 124.58821869 335.57717896
-39.31909180 119.77433014 347.51339722
-38.66206360 119.71558380 347.86163330
-38.05826187 119.74382019 347.87414551
-37.46280289 119.61218262 347.97653198
-32.39627075 122.86000824 340.01333618
-31.77799988 122.88804626 340.03469849
-31.15978241 122.91506958 340.05596924
-47.48140717 124.70362854 333.24435425
-46.80129242 124.48265076 333.68374634
-46.11551285 124.42463684 334.03057861
-45.43081284 124.36765289 334.37747192
-44.75391769 124.14436340 334.82086182
-44.13087082 124.18122101 334.81359863
-39.36374283 119.15776062 347.21597290
-38.65323257 119.01206970 347.89987183
-38.04945755 119.03923035 347.91333008
-37.44565964 119.06741333 347.92691040
-29.81291771 122.22044373 340.76473999
-46.85300064 123.84924316 333.36334229
-46.10498047 123.69812012 334.06942749
-45.42039871 123.64102936 334.41735840
-44.73663330 123.58287811 334.76617432
-44.05396652 123.52456665 335.11706543
-43.37229919 123.46614075 335.46990967
-42.74982071 123.50080872 335.46554565
-39.29308701 118.52604675 347.50204468
-38.63608551 118.46733093 347.85021973
-38.04120255 118.33564758 347.95260620
-36.83353043 118.38976288 347.98361206
-31.02950287 121.60900879 340.66671753
-29.71463776 121.31004333 341.51672363
-46.08766556 123.13559723 334.01477051
-45.46388626 123.17175293 334.00338745
-44.72664642 122.85617828 334.80709839
-44.11117172 122.72698212 334.89324951
-43.35480499 122.90457153 335.41632080
-42.66501236 122.59526062 336.01370239
-38.68949509 117.69081116 347.64361572
-38.03298569 117.63202667 347.99288940
-37.42929459 117.65809631 348.00729370
-36.82555008 117.68506622 348.02383423
-36.22158432 117.71105957 348.04022217
-35.61758423 117.73695374 348.05859375
-35.00366211 117.92160034 347.98913574
-30.93993950 120.53661346 341.51043701
-29.70808220 120.58702087 341.56185913
-46.87428284 122.98169708 332.79721069
-46.07041168 122.57318878 333.95904541
-45.44657135 122.60923767 333.94873047
-43.97457504 121.97920227 335.55413818
-43.35245895 122.01387024 335.54977417
-42.67198181 121.95539093 335.90261841
-41.48497009 122.11551666 335.54248047
-40.80554581 122.05573273 335.90032959
-38.12076950 117.25817871 347.27172852
-36.80824661 117.13932800 347.97412109
-36.20431137 117.16525269 347.99157715
-35.55004120 117.10502625 348.34671021
-34.38177109 117.40048981 347.96182251
-29.62223434 119.51857758 342.40487671
-28.99568558 119.70728302 342.33944702
-46.73901749 122.06672668 333.55648804
-45.99162292 121.91757965 334.26260376
-45.20059967 121.34912109 335.51330566
-44.57894897 121.38385773 335.50692749
-43.95705032 121.41863251 335.50054932
-43.21740341 121.26918030 336.20883179
-41.99126816 121.00787354 336.39315796
-41.36993027 121.04029846 336.39263916
-40.63570404 120.88941956 337.10592651
-39.97228622 120.96925354 337.28390503
-38.10362244 116.71243286 347.22201538
-37.39482498 116.56851196 347.90908813
-36.79098129 116.59452057 347.92550659
-36.18698502 116.62042999 347.94287109
-35.54270172 116.40136719 348.38699341
-34.37426376 116.69477081 348.00299072
-28.98968315 118.98520660 342.38565063
-46.00440216 121.16763306 334.21423340
-45.24393082 120.87964630 335.10229492
-43.83645630 120.34780121 336.34692383
-43.20784760 120.54448700 336.24978638
-41.97374725 120.44734955 336.33956909
-41.29543304 120.38867188 336.69540405
-40.61793518 120.32882690 337.05337524
-39.94177628 120.26889038 337.41226196
-37.48147964 116.19280243 347.18676758
-36.77358627 116.04869080 347.87680054
-36.16959000 116.07463074 347.89419556
-34.25865555 115.97872925 348.62792969
-45.25196838 120.23969269 334.99234009
-44.61223602 120.18878937 335.13595581
-43.81915283 119.78826141 336.29333496
-43.19833755 119.82083130 336.28991699
-42.57737350 119.85334778 336.28735352
-41.23831177 119.40966034 337.18756104
-40.61812973 119.44085693 337.18994141
-39.94207001 119.38200378 337.54794312
-39.25775146 119.48602295 337.81521606
-36.85920334 115.67207336 347.15344238
-36.26411438 115.53804016 347.26165771
-35.56835175 115.23581696 348.04470825
-34.86482239 115.09147644 348.73681641
-34.26190948 115.11608887 348.75915527
-29.50133896 117.34259796 343.14849854
-44.60262680 119.46405792 335.17687988
-43.92906952 119.24352264 335.62341309
-43.18087769 119.26027679 336.23629761
-42.52688217 119.12426758 336.53494263
-41.84074020 118.81878662 337.13354492
-39.92440033 118.82231140 337.49642944
-39.24918365 118.76229095 337.85629272
-37.77218628 118.18750763 339.64624023
-37.09107208 117.98941040 340.18920898
-35.40048599 114.43995667 349.00277710
-34.14650726 114.40419769 349.38140869
-29.39221573 116.61193848 343.79776001
-40.48875046 117.81723022 337.98336792
-39.85094833 118.17268372 337.79843140
-39.23142242 118.20262909 337.80477905
-38.52222061 117.72814178 338.70861816
-37.76290894 117.16674042 339.96322632
-37.09334183 117.10748291 340.32525635
-35.39345551 113.73724365 349.04409790
-34.65326309 113.35620117 350.15643311
-33.53765106 113.72386932 349.44793701
-29.30826187 115.56011200 344.63073730
-41.69074631 117.52272034 337.73556519
-40.24699020 116.90814209 339.33935547
-38.50467682 117.16953278 338.65612793
-37.74512863 116.61003876 339.91186523
-37.07558823 116.54975128 340.27481079
-35.33642197 112.95353699 349.41952515
-34.63588333 112.81333160 350.10891724
-33.48262787 112.93908691 349.82437134
-42.97790146 116.82830048 337.42230225
-42.26531601 116.65947723 338.04171753
-41.57663345 116.46513367 338.57580566
-40.90251541 116.40840149 338.93090820
-40.23884201 116.18936920 339.38171387
-39.52124405 115.88358307 340.18215942
-38.38816071 116.27381134 339.40469360
-37.72737503 116.05239868 339.86047363
-37.00501251 115.90722656 340.57427979
-35.36904144 112.49060822 349.03784180
-34.03974533 111.97705841 350.26455688
-33.42797852 112.15638733 350.19982910
-32.79399872 112.65141296 349.95812988
-31.10500145 112.56124878 349.55343628
-29.11667061 113.79123688 346.10174561
-42.25983810 115.88461304 338.11590576
-41.51120377 115.66056824 338.96884155
-40.84711075 115.44168091 339.41769409
-40.23069382 115.47059631 339.42312622
-39.50365067 115.32689667 340.13085938
-38.88798141 115.35462952 340.13925171
-37.70970917 115.49468231 339.81008911
-36.93459702 115.26473236 340.87271118
-34.69977570 111.88844299 349.34567261
-33.42168808 111.45552826 350.24337769
-32.79830933 111.79171753 350.08950806
-31.06509018 111.61827087 350.02288818
-41.56029892 115.02658844 338.65948486
-40.82954788 114.88506317 339.36535645
-40.10144424 114.74349213 340.07119751
-39.48596191 114.77020264 340.07952881
-38.87026596 114.79795837 340.08792114
-38.16682434 114.33274078 340.98535156
-36.97990417 114.63160706 340.56732178
-36.25992966 114.48735046 341.28121948
-34.68223190 111.34356689 349.29800415
-34.08031464 111.36605072 349.32226563
-31.04733467 111.07340240 349.97528076
-40.92514801 114.49693298 338.61236572
-39.54359055 113.97592163 339.86694336
-38.87276077 113.91886902 340.22613525
-36.25257874 113.76952362 341.32360840
-34.11067963 110.66387177 349.17184448
-33.48358536 110.52764893 349.48086548
-32.88189316 110.54794312 349.50799561
-32.27999496 110.56820679 349.53518677
-31.67806244 110.58837128 349.56427002
-31.02963638 110.52848053 349.92864990
-29.78130913 110.48737335 350.32797241
-38.18542862 113.30513000 340.53390503
-37.51669312 113.24680328 340.89602661
-36.88131714 113.00183868 341.26754761
-36.19367599 112.96981812 341.71713257
-33.56358337 110.14070892 348.76382446
-32.86422729 110.00302887 349.46038818
-32.26242065 110.02333832 349.48748779
-31.66036606 110.04350281 349.51660156
-31.01197052 109.98354340 349.88198853
-30.31904602 109.84449768 350.58251953
-38.99158478 113.21720123 338.97601318
-38.27595520 112.91493988 339.78378296
-36.85320663 112.31139374 341.39642334
-36.18693542 112.25290680 341.76055908
-35.57307434 112.27707672 341.77777100
-34.56861496 111.19151306 344.92416382
-33.84274292 110.78543854 345.98098755
-32.94309998 109.61522675 348.74227905
-31.04056931 109.51667786 349.49996948
-30.39426994 109.22118378 350.10083008
-28.65286064 109.75021362 349.34844971
-38.98443604 112.49725342 339.02032471
-38.20389557 112.27449036 340.08230591
-37.48101807 112.13442993 340.79437256
-36.16904449 111.69819641 341.71035767
-35.50375366 111.63963318 342.07546997
-34.58263397 110.45398712 344.88558960
-33.92406082 110.39633179 345.24987793
-33.12007141 110.09754181 346.63754272
-32.32233429 109.08963013 348.72265625
-31.71917534 109.10881805 348.75170898
-28.64051056 108.72821808 349.77145386
-38.20791626 111.39624023 340.22259521
-37.53863907 111.33901978 340.58370972
-36.81750488 111.19991302 341.29589844
-36.15114212 111.14244843 341.66009521
-35.48418808 110.84303284 342.26739502
-34.82156754 111.02620697 342.39245605
-33.95597458 109.92501068 344.85769653
-33.26084900 109.62753296 345.66101074
-32.59246445 109.48916626 346.17266846
-31.74877548 108.64006805 348.36764526
-31.05155945 108.50398254 349.07037354
-29.22467232 108.16446686 349.68981934
-28.62268639 108.18221283 349.72573853
-27.91961098 108.20171356 350.34240723
-36.85248947 110.72493744 340.89651489
-36.18540192 110.66742706 341.26174927
-34.82698059 110.15099335 342.53195190
-32.69617462 109.01746368 345.38986206
-31.99165154 108.87911987 346.09927368
-31.12717438 108.11238098 348.35000610
-30.47697830 108.05322266 348.71936035
-29.90019226 107.75491333 348.93731689
-29.20687675 107.61844635 349.64410400
-28.60479927 107.63629150 349.67907715
-27.91501617 107.49868774 350.38781738
-27.31402779 107.51529694 350.42575073
-38.91982651 110.68750000 339.04620361
-38.23744202 110.49743652 339.58959961
-37.50283813 110.22563171 340.48205566
-36.83459473 110.16922760 340.84619141
-36.21965790 110.19245911 340.86233521
-35.56497955 109.97456360 341.32437134
-34.80902100 109.59526062 342.48162842
-34.14613342 109.53746033 342.84985352
-32.72704315 108.54403687 344.99951172
-32.06983185 108.48610687 345.36788940
-31.46319199 108.26658630 345.63711548
-29.23418045 107.14872742 349.26095581
-28.58678627 107.08931732 349.63330078
-27.94091415 107.02892303 350.00564575
-27.29602051 106.96933746 350.38003540
-38.15436172 109.72525024 340.06848145
-37.49661255 109.50862122 340.52749634
-36.83996201 109.29187775 340.98764038
-34.89325333 109.19986725 341.73709106
-34.12805939 108.98267365 342.80059814
-32.81850815 106.65078735 348.93109131
-32.18088531 106.43681335 349.38757324
-31.53196144 106.37995911 349.75207520
-29.21619987 106.60180664 349.21414185
-28.56892967 106.54238892 349.58660889
-27.93698692 106.32573700 350.05297852
-27.29205894 106.26513672 350.42736816
-36.20743179 108.75839233 340.95333862
-35.59266663 108.78051758 340.97134399
-34.87511063 108.64408875 341.68786621
-34.26135635 108.66603088 341.70886230
-32.81330872 105.94885254 348.97549438
-32.16313171 105.89198303 349.33996582
-31.51404762 105.83408356 349.70443726
-29.84654999 106.11315155 348.79699707
-29.24331665 106.13107300 348.83099365
-27.97705078 105.69677734 349.76379395
-36.29482269 108.35917664 340.20458984
-32.79551697 105.40296936 348.92779541
-32.14518738 105.34609222 349.29229736
-31.49619865 105.28914642 349.65771484
-30.33921432 105.39909363 349.38827515
-28.66690445 105.67514801 348.48260498
-26.75521469 105.18086243 349.79684448
-36.48419189 112.36094666 328.07186890
-32.82604599 104.93108368 348.54559326
-32.17520142 104.87523651 348.91009521
-31.53864670 104.66116333 349.36868286
-30.30863571 104.59432983 349.68771362
-28.61829567 104.89369965 348.86825562
-28.02961349 104.75216675 348.99920654
-27.33914375 104.61840057 349.71118164
-26.73714066 104.63390350 349.75106812
-26.13519096 104.64832306 349.79284668
-36.52656174 111.78620911 327.69577026
-35.79500198 111.47503662 328.55783081
-33.74365234 107.25113678 340.53298950
-31.58155060 104.03309631 349.07955933
-30.93243790 103.97608948 349.44601440
-30.33060265 103.99298859 349.47991943
-29.72882080 104.00878143 349.51483154
-28.01156807 104.20424652 348.95236206
-27.36478615 104.14566803 349.32781982
-26.71912384 104.08595276 349.70526123
-26.11708641 104.10135651 349.74710083
-42.26554108 106.45794678 340.53701782
-35.84363174 110.81688690 328.23400879
-33.57447433 106.45979309 341.53338623
-33.03645325 106.23661804 341.40081787
-31.65892410 103.63333130 348.36068726
-30.91436958 103.43016815 349.39932251
-30.31255913 103.44605255 349.43319702
-29.71078300 103.46288300 349.46820068
-29.10881805 103.47862244 349.50402832
-27.34670639 103.59768677 349.28195190
-26.70095634 103.53896332 349.65945435
-42.20004654 105.66974640 340.92501831
-41.52991867 105.61804962 341.27755737
-34.47670364 106.34551239 339.35626221
-33.70712280 106.13363647 340.43304443
-32.86916351 105.44954681 342.39651489
-31.59329796 103.01336670 348.64950562
-30.89648438 102.88424683 349.35263062
-30.29455185 102.90013885 349.38647461
-29.69280243 102.91596985 349.42135620
-29.04566383 102.85861206 349.79293823
-27.32850456 103.04972076 349.23617554
-42.90146637 105.39943695 340.07907104
-42.18221664 105.11509705 340.87283325
-41.51193619 105.06346893 341.22528076
-40.89954758 105.08706665 341.23437500
-34.39873123 105.57586670 339.84039307
-33.68077850 105.44299316 340.56500244
-33.00762939 105.25398254 341.12057495
-30.87841225 102.33737946 349.30487061
-30.27647972 102.35320282 349.33975220
-29.62901497 102.29698944 349.70932007
-28.98233795 102.24059296 350.08187866
-27.35401344 102.57501984 348.85275269
-24.94122696 102.63057709 349.02279663
-42.89419937 104.68659973 340.12182617
-42.22222137 104.63596344 340.47430420
-41.51609802 104.19432068 341.36410522
-34.36422348 104.75228119 340.15457153
-33.64652634 104.62039948 340.87832642
-32.98157120 104.56430054 341.25262451
-32.31758118 104.50713348 341.62786865
-30.92155075 101.70729828 349.01660156
-30.28713417 101.49491119 349.47930908
-29.60520363 101.62361908 349.83630371
-28.97878265 101.53845978 350.12832642
-27.86540604 101.71082306 349.53454590
-25.54195786 101.91100311 349.02731323
-24.89726830 101.85195160 349.40972900
-42.26257706 104.15486908 340.07467651
-41.49824142 103.64070129 341.31195068
-40.81818771 103.74611664 341.57131958
-34.29445267 104.11763763 340.45553589
-33.62815094 104.06163025 340.82885742
-32.97708511 103.84709930 341.30023193
-32.31327820 103.78993225 341.67541504
-30.26909447 100.94898987 349.43258667
-29.57577133 100.82274628 350.13693237
-28.97520256 100.83734131 350.17480469
-27.86227036 101.00760651 349.58294678
-25.53950882 101.20465851 349.07653809
-24.89482117 101.14560699 349.45895386
-42.25570679 103.44190216 340.11938477
-41.53787613 103.16050720 340.91433716
-40.86808014 103.10865021 341.26980591
-32.97268677 103.12985992 341.34872437
-32.30897903 103.07366943 341.72402954
-31.64643288 103.01741028 342.10037231
-30.25102234 100.40207672 349.38583374
-29.60340881 100.34677887 349.75643921
-27.84403992 100.45967865 349.53610229
-26.64031792 100.48654938 349.61862183
-25.98503304 100.04695892 350.52136230
-24.83489609 100.52533722 349.75082397
-42.30730057 102.80249023 339.81570435
-41.63525772 102.75171661 340.17022705
-40.85006332 102.55403137 341.21755981
-40.18140793 102.50312805 341.57305908
-39.51352692 102.45107269 341.93157959
-33.00442505 102.64591980 340.94973755
-32.38948441 102.66356659 340.97549438
-31.67661095 102.53341675 341.70239258
-30.31143951 100.15158081 348.57339478
-29.63125992 99.87089539 349.37506104
-27.82578468 99.91269684 349.49032593
-27.22398186 99.92617035 349.53112793
-26.62209129 99.93957520 349.57281494
-25.96683693 99.49998474 350.47561646
-25.36639977 99.51218414 350.52029419
-41.61730194 102.19615936 340.11791992
-40.94601059 102.14531708 340.47341919
-40.27595139 102.09441376 340.82989502
-39.57521057 101.65625763 341.72604370
-38.79796600 101.46035004 342.77362061
-31.75601387 102.12238312 340.95382690
-30.99590302 101.91916656 342.03225708
-29.70513916 99.46218109 348.65652466
-29.01114655 99.33766937 349.36599731
-28.40929031 99.35128021 349.40377808
-27.80749321 99.36482239 349.44354248
-27.20562935 99.37821198 349.48529053
-26.60373688 99.39161682 349.52706909
-41.65710068 101.71208954 339.71807861
-40.92796707 101.58972168 340.42108154
-39.55716324 101.10160065 341.67477417
-38.83489990 100.97910309 342.37789917
-38.16930771 100.92682648 342.73846436
-32.63339996 104.62545776 332.55963135
-29.08414650 98.92906952 348.64556885
-28.39103317 98.80402374 349.35803223
-27.78920364 98.81735229 349.39767456
-27.18727684 98.83041382 349.43847656
-26.58534813 98.84314728 349.48117065
-25.97303391 98.47525024 350.04913330
-25.32979202 98.41839600 350.42977905
-40.43433380 100.88385010 339.88082886
-39.81978989 100.90440369 339.89175415
-38.92710114 100.56725311 341.63760376
-38.15991974 100.26992035 342.75134277
-31.10922813 102.94109344 335.26193237
-25.95477295 97.92770386 350.00332642
-25.31146812 97.87104797 350.38497925
-39.74523163 100.27622986 340.18698120
-37.54784012 99.52688599 342.84631348
-30.69551468 101.00074768 339.00265503
-29.91812325 100.73745728 340.25564575
-27.84133148 97.85824585 348.63125610
-27.23824501 97.87097168 348.67288208
-25.93626595 97.38007355 349.95855713
-25.29293633 97.32379913 350.33920288
-39.00146866 99.59792328 340.84268188
-29.97833061 100.14952087 339.79187012
-29.23594475 99.78993225 340.98257446
-27.30820274 97.45790863 347.95013428
-26.72069168 97.31430817 348.08804321
-26.03850937 97.11271667 348.85516357
-25.27449417 96.77627563 350.29443359
-39.55302429 98.79642487 341.22137451
-38.86239243 98.77512360 341.66342163
-38.23115158 98.53942871 342.03860474
-37.51142502 98.41939545 342.74493408
-30.02349663 99.50017548 339.48947144
-29.18626595 99.00022125 341.38275146
-28.50930023 99.10275269 341.67111206
-26.11481857 96.62018585 348.17987061
-25.34047318 96.36260223 349.57653809
-24.65541649 96.23961639 350.29626465
-39.49162674 98.01643372 341.61093140
-38.76910782 97.89775848 342.31524658
-38.10361481 97.84749603 342.67584229
-37.49304962 97.86546326 342.69473267
-29.21450233 98.51085663 340.98345947
-28.46036530 98.31465912 342.07043457
-26.13964081 96.13658905 347.79595947
-24.65396118 95.53697968 350.34570313
-24.05344582 95.54724884 350.39431763
-39.52930450 97.52975464 341.21493530
-38.86149597 97.48008728 341.57452393
-38.13955688 97.13164520 342.52575684
-37.48826599 97.15592194 342.74069214
-36.89144135 97.01770782 342.85766602
-35.55172348 97.07122040 343.49279785
-34.85277557 96.79676056 344.29843140
-29.24266815 98.02040100 340.58401489
-28.54051971 97.66028595 341.57192993
-27.83480263 97.53532410 342.30822754
-25.25280762 94.82431030 350.34756470
-24.65247726 94.83454132 350.39517212
-38.89867783 96.99266052 341.17849731
-37.53764343 96.51399231 342.44290161
-36.87306595 96.46354675 342.80752563
-36.26255035 96.48042297 342.82827759
-35.54724884 96.36222076 343.53884888
-34.83434296 96.24391937 344.24832153
-34.22563934 96.25958252 344.27508545
-29.27095604 97.52886200 340.18261719
-27.84223557 96.89408875 342.21017456
-27.18373108 96.83838654 342.59860229
-24.63400078 94.28681946 350.35034180
-38.88035583 96.43696594 341.12615967
-37.51929092 95.95948792 342.39266968
-36.85459518 95.90951538 342.75628662
-36.19110870 95.85923004 343.12200928
-35.49079514 95.58697510 343.92773438
-34.83017731 95.53617096 344.29541016
-34.22166061 95.55153656 344.32214355
-33.61310577 95.56652069 344.34991455
-27.96089172 96.54001617 341.11090088
-27.21003532 96.34794617 342.20126343
-26.55211067 96.29228210 342.59066772
-25.30062294 93.85813904 349.58560181
-24.61543465 93.73893738 350.30450439
-38.28239822 95.80073547 341.03228760
-37.60971069 95.53786469 341.65167236
-36.83618546 95.35510254 342.70611572
-35.48675537 94.87910461 343.97476196
-34.82613373 94.82860565 344.34249878
-34.21780014 94.84356689 344.36923218
-33.60933685 94.85836792 344.39691162
-27.28153229 95.92431641 341.45178223
-26.53312302 95.73321533 342.54318237
-25.32473946 93.37371063 349.20251465
-24.68056107 93.31924438 349.58724976
-23.99634933 93.20046997 350.30825806
-37.64575195 95.04816437 341.25546265
-37.03316116 95.06472778 341.27517700
-36.31353760 94.94871521 341.98776245
-35.52056885 94.39131165 343.58273315
-34.85937881 94.34113312 343.95043945
-34.19924545 94.29064941 344.31918335
-33.54032898 94.23983765 344.68978882
-26.60320854 95.30858612 341.79568481
-25.30601311 92.82438660 349.15667725
-24.66186523 92.77017212 349.54138184
-24.01905632 92.71587372 349.92718506
-37.20987701 90.21121216 353.84075928
-36.53006744 90.34284210 354.17489624
-35.90883636 90.26592255 354.44949341
-35.27898788 90.28785706 354.66464233
-35.55459976 93.90253448 343.18951416
-34.84088135 93.78780365 343.90026855
-34.18068695 93.73748016 344.26995850
-33.52164841 93.68695831 344.64071655
-27.48239136 95.52494049 339.03366089
-26.58418274 94.74822235 341.74810791
-26.00587273 94.44421387 341.98977661
-24.68533516 92.28428650 349.15924072
-36.49623489 89.56880188 354.46408081
-35.90500259 89.58082581 354.49291992
-35.31358337 89.59272766 354.52374268
-34.82228851 93.23411560 343.85110474
-34.16200256 93.18421936 344.22082520
-33.55347443 93.19823456 344.24948120
-27.45987320 94.83232880 339.17150879
-26.74173355 94.67107391 340.02862549
-24.75102425 91.86042786 348.43771362
-35.88689041 89.04413605 354.44577026
-35.29553223 89.05584717 354.47656250
-34.29033661 92.69825745 343.32128906
-33.65173340 92.61780548 343.61141968
-33.05786896 92.47669220 343.73922729
-28.10906410 94.45053864 338.54357910
-26.81615257 94.02437592 339.53460693
-26.06478691 93.83688354 340.63723755
-24.12902451 91.31858063 348.44024658
-36.51984787 88.67189026 353.87722778
-35.86893082 88.50741577 354.39758301
-35.27745056 88.51884460 354.42837524
-34.09429169 88.54103088 354.49386597
-33.47277832 88.84895325 354.34548950
-34.43357468 92.45871735 342.05688477
-33.03923798 91.92202759 343.69006348
-32.42960739 91.93507385 343.72064209
-27.41454315 93.44851685 339.44729614
-26.75170517 93.39453888 339.84088135
-26.09005737 93.34020996 340.23638916
-25.38578033 93.21980286 340.98596191
-24.15195847 90.82946014 348.05590820
-36.49396896 88.01659393 353.99722290
-35.85075760 87.97052002 354.34942627
-35.25936508 87.98168182 354.38116455
-34.07623672 88.00357819 354.44668579
-33.48443985 88.01405334 354.48144531
-33.73213577 91.47986603 342.92291260
-31.12221336 94.77540588 333.21145630
-27.58020782 93.14738464 337.97531128
-26.73251534 92.83111572 339.79211426
-24.78848648 92.35263062 341.18490601
-23.52936935 90.28604126 348.06030273
-36.52764511 87.53635406 353.62759399
-35.88397598 87.49061584 353.97979736
-35.24115753 87.44448090 354.33294678
-34.64957809 87.45526886 354.36572266
-34.05790329 87.46591949 354.39947510
-33.71356964 90.92434692 342.87261963
-32.37600327 90.97938538 343.52386475
-31.68406487 90.71292877 344.34210205
-30.42617416 94.15051270 333.55453491
-26.80409622 92.39746857 339.03402710
-23.55187416 89.79535675 347.67382813
-35.91703796 87.00966644 353.60906982
-33.64355087 90.30674744 343.16757202
-32.93261719 90.19598389 343.88452148
-32.27373505 90.14646912 344.26031494
-31.64917183 89.78954315 344.83175659
-30.42429352 93.41869354 333.60928345
-29.71770287 93.13935852 334.47262573
-23.70078850 89.61074066 346.08114624
-22.96932602 89.31143951 347.33871460
-35.18396759 86.01902771 354.74349976
-34.05200195 86.09480286 354.48931885
-33.57357025 89.69007111 343.46142578
-32.90786743 89.51864624 344.01528931
-31.10915375 86.49447632 354.16790771
-23.68060493 88.93206787 346.21487427
-22.95036316 88.75787354 347.29354858
-36.39875412 85.51704407 354.31124878
-35.11493683 85.42702484 355.01681519
-33.44235992 85.56666565 354.47781372
-33.70828629 89.31744385 342.37841797
-31.66763687 85.59384918 354.59078979
-31.07597733 85.60263824 354.63043213
-23.66148376 88.37701416 346.16864014
-22.97233391 88.26422882 346.90588379
-35.78936386 84.99025726 354.29385376
-35.14741135 84.94535828 354.64810181
-33.42390442 85.02858734 354.43048096
-31.64923859 85.05539703 354.54342651
-31.01028252 85.00866699 354.90670776
-24.99573708 88.72613525 343.90228271
-24.50975609 88.54589844 343.45544434
-22.99430466 87.76967621 346.51721191
-35.77106476 84.45291901 354.24655151
-35.12908173 84.40835571 354.59994507
-33.99704361 84.48146820 354.34661865
-33.40550995 84.49050140 354.38330078
-32.81397247 84.49938202 354.41992188
-32.22234726 84.50820160 354.45755005
-31.64722824 84.36894226 354.59085083
-30.94468498 84.41554260 355.18411255
-24.42835808 88.08164978 343.65612793
-23.01654053 87.27401733 346.12847900
-35.75276947 83.91539764 354.19839478
-35.16142273 83.92489624 354.23104858
-33.38711166 83.95225525 354.33602905
-32.79554749 83.96093750 354.37268066
-32.20388794 83.96947479 354.41128540
-24.47120094 87.42778015 343.36145020
-23.01721382 86.56438446 346.18151855
-35.14306641 83.38718414 354.18283081
-34.55157089 83.39626312 354.21752930
-33.96015930 83.40515137 354.25213623
-32.77696609 83.42239380 354.32537842
-32.18524551 83.43073273 354.36395264
-24.45178604 86.86853027 343.31393433
-23.84076118 86.87631226 343.36322021
-22.97662735 85.79720306 346.57815552
-34.58359909 82.91125488 353.84655762
-34.00775528 82.77308655 353.97488403
-32.87285233 82.84303284 353.72540283
-32.16678238 82.89173126 354.31765747
-31.63983536 82.80569458 354.12628174
-31.03749466 82.74651337 354.30596924
-30.39133072 82.91484070 354.44033813
-24.43243027 86.30912018 343.26736450
-23.82146645 86.31681824 343.31570435
-22.87456512 85.12767792 347.21615601
-31.04603195 82.12652588 354.21420288
-29.90853691 82.19333649 353.97454834
-22.97996140 84.86553955 345.96188354
-32.26001740 81.62448120 353.76199341
-30.97989273 81.53486633 354.49072266
-22.96021080 84.18833923 346.09777832
-22.31291962 84.13789368 346.49472046
-32.14403534 80.98158264 354.36227417
-31.55270576 80.98859406 354.40283203
-30.36960411 81.00227356 354.48681641
-22.96865654 83.54914856 346.00384521
-22.29346085 83.58247375 346.44842529
-32.22274780 80.54462433 353.66827393
-31.53396797 80.44943237 354.35552979
-30.94235802 80.45605469 354.39801025
-30.35080338 80.46256256 354.44052124
-31.56326485 79.96063995 353.98526001
-30.97890091 79.75506592 354.26074219
-30.34976959 79.77645111 354.48797607
-29.74044800 79.92900848 354.43768311
-29.14882660 79.93492126 354.48312378
-28.81672287 81.93636322 347.03872681
-28.20476532 81.58838654 347.61898804
-22.92979240 82.43701172 345.91217041
-22.25454330 82.47115326 346.35681152
-31.68918419 79.57164001 352.96322632
-29.25869370 79.20199585 353.97640991
-28.75071144 81.33123779 347.32943726
-22.31821632 81.66462708 346.16763306
-31.07678032 79.03642273 352.95727539
-22.29875374 81.10853577 346.12231445
-30.46430969 78.50062561 352.95220947
-29.83248138 78.24491119 353.55862427
-29.20245934 78.26636505 353.78878784
-28.62850761 78.12507629 353.92996216
-28.03617668 78.12990570 353.97738647
-27.38015556 78.23197174 354.25704956
-30.54021645 78.05664063 352.25277710
-28.70148468 77.68125153 353.23248291
-28.01721382 77.58833313 353.93197632
-27.38014603 77.54412842 354.30636597
-29.97366333 77.56778717 351.92059326
-28.04353142 77.09503174 353.55941772
-27.36106491 77.00281525 354.25994873
-26.72494125 76.95855713 354.63635254
-29.38749886 76.94727325 351.87286377
-28.73665237 76.83873749 352.38955688
-26.70585823 76.41739655 354.59094238
-27.72934151 76.34835815 351.21804810
-26.09528542 75.87961578 354.59680176
-29.35179520 77.26295471 346.47189331
-28.65364075 77.16973877 347.19219971
-26.79547691 75.13665771 354.03845215
-26.13969803 75.23892212 354.32101440
-24.95075798 80.49968719 335.57965088
-29.38282585 76.87497711 345.90432739
-28.68099403 76.66648865 346.80603027
-26.77629852 74.59449005 353.99291992
-26.18410492 74.59763336 354.04525757
-24.90711021 79.71862793 335.99859619
-28.80300140 76.25926208 345.73977661
-27.53512573 74.57045746 352.06637573
-25.64278984 76.13653564 346.99798584
-24.77394295 78.83403778 337.13720703
-28.15687180 74.06783295 351.64120483
-27.51581001 74.02546692 352.01971436
-26.21331978 73.74875641 353.20382690
-25.59697914 73.56048584 353.68020630
-25.06160545 75.28833771 347.20233154
-24.82042503 78.16188049 336.83557129
-28.18556595 73.68045044 351.08959961
-24.20235252 77.44255829 336.94281006
-28.16423798 73.02167511 351.21749878
-27.47693634 72.93499756 351.92639160
-25.56049347 72.80876160 353.07000732
-28.14467239 72.47539520 351.17077637
-27.47782516 72.24417877 351.97653198
-26.85850143 72.05730438 352.45397949
-26.21991348 72.01567078 352.83453369
-23.41666031 72.53984070 351.26516724
-27.47887230 71.55363464 352.02670288
-26.83894348 71.51245117 352.40728760
-26.24473190 71.51462555 352.45950317
-26.86445999 71.01056671 352.03222656
-26.22508049 70.96946716 352.41381836
-25.63074303 70.97133636 352.46801758
-22.78062820 71.44477081 351.23263550
-27.53520012 70.88155365 350.74835205
-26.98061180 70.59321594 350.99533081
-26.20558167 70.42420197 352.36712646
-25.61112022 70.42584229 352.42132568
-22.78323555 70.74992371 351.28558350
-26.96085930 70.04595184 350.94848633
-26.27491188 69.96314240 351.66259766
-25.63546944 69.92241669 352.04614258
-30.13150787 74.39547729 331.88259888
-29.37321091 74.39050293 332.70034790
-26.38958549 69.54229736 350.62243652
-25.65978432 69.41805267 351.67001343
-25.06437492 69.41928864 351.72515869
-23.95887375 69.50538635 351.17547607
-23.23734856 69.26976776 352.40292358
-30.06003380 73.77156067 332.19604492
-29.30525589 73.48032379 333.43676758
-26.32497025 68.95273590 350.90707397
-25.72837067 68.95405579 350.96121216
-23.93908310 68.95703125 351.12957764
-17.22597504 70.53148651 345.85833740
-30.09014702 73.24374390 331.77749634
-29.30638504 72.75335693 333.49481201
-28.63261032 72.71147156 333.89788818
-27.96457672 73.02223206 333.72277832
-25.75298119 68.44709778 350.58279419
-23.96207428 68.44982910 350.75122070
-30.09135437 72.51435852 331.83541870
-29.28577614 72.17969513 333.44235229
-28.61199951 72.13803864 333.84649658
-27.93944550 72.09621429 334.25161743
-23.89928627 67.86009216 351.03784180
-17.13617516 69.17762756 346.56109619
-30.04168892 71.73902893 332.25854492
-29.26516342 71.60576630 333.39099121
-28.59123802 71.56452179 333.79513550
-27.91862297 71.52300262 334.20016479
-24.85529518 66.78451538 353.05233765
-24.26237679 66.78462219 353.11050415
-22.64944649 66.94248962 351.97128296
-17.10375786 68.42854309 346.96197510
-30.02110100 71.16365051 332.20599365
-29.26666260 70.87953186 333.44808960
-28.59282875 70.83852386 333.85321045
-27.92043114 70.79754639 334.25738525
-25.47259331 65.95291901 353.14459229
-24.85768890 66.09605408 353.10470581
-24.26504707 66.09595490 353.16281128
-22.62953377 66.39470673 351.92648315
-17.08352089 67.87067413 346.91653442
-28.59451485 70.11301422 333.91036987
-27.92223930 70.07236481 334.31555176
-24.86018181 65.40798187 353.15505981
-24.26765823 65.40761566 353.21414185
-23.12578201 67.16837311 346.33435059
-27.95004845 69.54298401 333.90182495
-24.29079437 64.90006256 352.83978271
-20.78736877 66.88009644 345.39712524
-17.00568962 66.71393585 347.17129517
-16.40277100 66.71276093 347.24121094
-28.64078522 69.12868500 333.02511597
-27.88056374 68.92569733 334.21276855
-27.18647766 69.03691101 334.51147461
-24.31414032 64.39145660 352.46423340
-22.47454834 64.55474854 352.73660278
-20.76682281 66.32104492 345.35159302
-17.07359886 65.90122986 346.98690796
-16.36800957 65.90534973 347.78985596
-28.68083000 68.52073669 332.66403198
