-26.01458740 78.65365601 352.21942139
-29.73690796 78.80786133 345.38165283
-29.73774910 78.69984436 346.30047607
-25.75686836 79.12442017 347.58489990
-24.86062050 79.21854401 348.28921509
-25.96582603 78.24521637 351.27493286
-25.80014610 78.18176270 351.95858765
-26.37362099 77.59092712 354.34704590
-26.19381714 77.37185669 354.93063354
-25.94598007 77.36997986 355.51852417
-25.68005180 77.21219635 356.01037598
-29.34215546 78.38197327 344.87231445
-29.52669525 78.22795105 346.03491211
-26.06883049 78.46125793 347.01315308
-25.89542770 78.39842224 347.69998169
-24.83158684 78.69534302 348.26300049
-25.95893288 77.61684418 352.16952515
-26.16097641 77.11998749 354.08996582
-29.49544907 77.81614685 345.08718872
-29.53928185 77.53929901 345.98919678
-29.39569664 77.50930786 346.73464966
-25.67951775 77.92258453 347.43322754
-24.80319023 78.17192078 348.23757935
-24.60448265 77.87320709 348.77758789
-25.90943909 77.20674896 351.22433472
-25.60025978 76.63031769 354.27990723
-25.44062424 76.56711578 354.96176147
-22.43265152 76.68071747 356.50567627
-29.10072517 77.38794708 344.57788086
-29.98515511 76.82293701 346.55172729
-25.65051270 77.39983368 347.40707397
-24.93343544 77.36679840 348.30307007
-25.93306160 76.85816956 350.40536499
-26.80180359 76.12218475 353.14633179
-25.38670158 76.15742493 354.02227783
-25.34128189 75.98698425 354.81106567
-22.93933487 76.13497925 356.26174927
-29.25331879 76.82238007 344.79193115
-29.41370583 76.33419037 346.72686768
-25.62150955 76.87696075 347.38088989
-25.26254272 76.86034393 347.82855225
-26.18764877 76.29187775 349.80456543
-26.43483925 75.96964264 350.94378662
-26.56799316 75.75573730 351.97036743
-22.72238350 75.65999603 356.00445557
-28.85776901 76.39173889 344.28182983
-28.88060188 76.13795471 345.16537476
-29.20258904 75.86009216 346.46127319
-25.59244156 76.35387421 347.35467529
-26.63552666 75.49763489 350.31329346
-26.70643997 75.29926300 351.26336670
-26.72507668 75.19402313 352.18051147
-24.79740715 75.14687347 354.18841553
-23.22879219 75.11518097 355.76086426
-28.98672295 75.48892975 345.27182007
-29.35463524 75.29753876 346.67333984
-25.56386375 75.83074951 347.32931519
-25.20505142 75.81386566 347.77703857
-26.13040543 75.25116730 349.75320435
-26.67817116 74.78082275 351.23809814
-23.48300171 76.03815460 348.35549927
-23.16711617 74.70195007 354.81610107
-22.66864967 74.61979675 355.95666504
-29.58562469 74.59775543 346.93237305
-24.98788834 75.33480072 347.50979614
-23.72572899 75.32729340 348.61755371
-29.45192146 73.98461151 346.71215820
-29.27510452 73.92544556 347.39285278
-23.83731461 74.62693787 347.74942017
-23.50618744 74.84658051 348.34973145
-24.71652031 73.25156403 354.88699341
-29.26248360 73.84291840 345.67349243
-29.06407738 73.44937134 347.12826538
-28.70602989 73.43238831 347.57095337
-23.47766685 74.32124329 348.32431030
-22.41052818 74.26721191 349.68142700
-24.76711464 72.93292999 354.13464355
-24.68953133 72.73320770 354.86318970
-24.34487534 72.71370697 355.31362915
-29.23278046 73.32335663 345.64678955
-29.21103859 72.98947144 346.41983032
-29.03446579 72.93077087 347.10162354
-28.67629623 72.91367340 347.54437256
-23.44829369 73.79578400 348.29818726
-22.54497719 73.80284882 348.96102905
-22.38191605 73.74139404 349.65606689
-24.63215637 72.31688690 353.91952515
-24.66196251 72.21469116 354.83871460
-24.31791687 72.19515228 355.28991699
-28.99900436 72.51170349 346.15332031
-29.00464058 72.41194153 347.07507324
-28.64726448 72.39467621 347.51843262
-28.29061890 72.37728119 347.96243286
-26.32431793 72.76690674 348.25219727
-23.60991669 73.22742462 348.51461792
-22.51627541 73.27651215 348.93557739
-22.43508339 73.07508087 349.67581177
-24.41567993 72.17604828 352.88626099
-24.60455894 71.79762268 353.89501953
-24.25898743 71.77800751 354.34628296
-23.91432953 71.75834656 354.79818726
-28.61033630 71.97489929 346.57009888
-28.25158310 71.95751953 347.01345825
-27.89420700 71.94001007 347.45819092
-25.56579590 72.31037903 348.19427490
-24.73604965 71.33818054 353.18475342
-24.57686806 71.27811432 353.87060547
-24.23132706 71.25852203 354.32186890
-23.88733864 71.23870850 354.77447510
-28.23322487 71.86944580 345.28677368
-28.39729309 71.49561310 346.30313110
-28.22245979 71.43743134 346.98754883
-27.86511040 71.41983032 347.43228149
-25.53651619 71.78760529 348.16824341
-22.45877838 72.22358704 348.88479614
-24.52037811 70.85848236 352.92446899
-24.36159515 70.79875946 353.61132813
-23.48234749 70.79920197 354.28097534
-23.51563263 70.69891357 355.20251465
-16.62456131 71.43572235 358.40405273
-26.92720222 71.79063416 343.65872192
-28.18501282 71.01524353 346.03671265
-27.82546616 70.99765015 346.48077393
-27.65127563 70.93971252 347.16598511
-25.50717545 71.26460266 348.14239502
-22.51191330 71.55716705 348.90469360
-22.15770340 71.53823090 349.35882568
-23.95751762 70.35820770 353.11553955
-23.79928398 70.29854584 353.80325317
-23.45459366 70.27854156 354.25653076
-23.48851967 70.17885590 355.17871094
-16.90764618 70.68942261 357.76901245
-16.96631241 70.58606720 358.70333862
-16.46105385 70.84584808 359.08105469
-27.25037956 71.02764893 344.01873779
-27.61147690 70.51633453 346.21316528
-27.43743706 70.45859528 346.89965820
-24.00722504 70.03445435 352.35824585
-23.92961121 69.83715057 353.09118652
-23.77153015 69.77774048 353.77880859
-23.42677879 69.75762939 354.23202515
-17.10677528 70.37187958 357.22421265
-17.27729797 70.08168793 358.21719360
-16.93977547 70.05988312 358.68005371
-16.60387039 70.03780365 359.14410400
-27.04330635 70.44620514 344.68133545
-27.39742661 70.03411102 345.94561768
-27.40818977 69.93711090 346.87371826
-23.60177422 69.59111786 351.85931396
-23.90115738 69.31590271 353.06594849
-23.74371529 69.25693512 353.75445557
-23.39890671 69.23662567 354.20770264
-17.13642502 69.75086212 357.22982788
-17.25066948 69.55538177 358.19393921
-16.91390991 69.53345490 358.65744019
-16.57727242 69.51139069 359.12081909
-27.01250076 69.92234802 344.65399170
-27.00866318 69.49362183 346.36502075
-23.38436890 69.93489838 347.27224731
-22.48031425 69.93678284 347.93521118
-22.23328018 70.01703644 348.58584595
-22.15334129 69.81857300 349.32781982
-23.87325096 68.79460144 353.04153442
-23.71578217 68.73596954 353.72994995
-23.37106133 68.71554565 354.18322754
-17.50615883 69.15151215 356.77294922
-17.56238937 69.05092621 357.70846558
-17.22407150 69.02909088 358.17071533
-16.88725090 69.00695038 358.63427734
-16.74961090 68.94560242 359.33258057
-26.79677010 69.43758392 344.38363647
-22.45078850 69.40921021 347.90921021
-22.28663063 69.35050964 348.60552979
-22.12457848 69.29162598 349.30252075
-24.00428200 68.33141327 352.32861328
-23.84534454 68.27322388 353.01715088
-23.68860817 68.21483612 353.70635986
-21.35761833 68.32327271 354.34396362
-21.12333870 68.40235901 354.99337769
-17.67684937 68.58531189 356.98626709
-17.53576088 68.52455139 357.68524170
-17.28267097 68.36277008 358.19088745
-16.94603348 68.34053802 358.65423584
-16.61021805 68.31816101 359.11819458
-26.58091736 68.95173645 344.11322021
-26.56750298 68.61990356 344.89642334
-26.04409409 68.87670135 345.25106812
-22.25768089 68.82320404 348.58020020
-23.62857437 67.78928375 352.75613403
-23.28226662 67.76889801 353.20956421
-21.13791466 67.83723450 354.08294678
-17.65015984 68.05844116 356.96307373
-16.66985321 67.65179443 359.13873291
-26.36375046 68.46497345 343.84136963
-26.53666687 68.09552765 344.86904907
-26.17638969 68.07698059 345.31658936
-21.87253952 68.76444244 345.43426514
-22.19898415 68.72853088 346.82382202
-22.08044243 68.49806976 347.50180054
-22.22882652 68.29577637 348.55487061
-23.22174454 67.34178925 352.25701904
-17.76544380 67.59151459 356.23999023
-17.62282944 67.53156281 356.93914795
-17.48237991 67.47143555 357.63891602
-26.70384026 67.44014740 346.01794434
-25.81130791 67.77037811 345.88970947
-21.97865105 67.90229797 347.34405518
-22.00765800 67.80628967 348.28656006
-23.00369072 66.85575867 351.99429321
-21.77230263 66.83046722 353.12115479
-21.42700195 66.80950165 353.57766724
-21.08255386 66.78830719 354.03472900
-20.73884010 66.76706696 354.49230957
-17.73869133 67.06402588 356.21688843
-17.68124390 66.86528778 356.95950317
-17.54018784 66.80559540 357.65844727
-17.20342636 66.78326416 358.12200928
-26.48795700 66.95358276 345.74905396
-21.59329414 67.35356140 347.77346802
-22.97490120 66.33211517 351.96917725
-21.55256844 66.34268188 352.85855103
-21.39891052 66.28492737 353.55319214
-26.45767021 66.42958832 345.72250366
-26.47170067 66.33755493 346.65484619
-21.72691536 66.88178253 347.04751587
-21.56355095 66.82452393 347.74746704
-21.59478760 66.72980499 348.69082642
-22.20966339 66.19188690 351.13946533
-17.68439484 66.00878143 356.16979980
-17.34501076 65.98653412 356.63302612
-26.35777092 65.83865356 345.56466675
-26.42625427 65.65658569 346.52798462
-21.69781494 66.35217285 347.02227783
-21.53442001 66.29519653 347.72222900
-21.37261200 66.23816681 348.42196655
-21.06439972 65.53594208 352.35299683
-20.95858383 65.30706024 353.02862549
-20.61340523 65.28556824 353.48635864
-20.26907921 65.26398468 353.94470215
-19.92557716 65.24230957 354.40356445
-17.20567894 65.35603333 356.41546631
-16.86696434 65.33345032 356.87942505
-19.04542923 63.79261780 363.40002441
-25.46451950 65.55995178 344.45108032
-26.38838577 65.05423737 346.45132446
-21.20338631 65.70013428 347.25262451
-21.34277725 65.70911407 348.39605713
-21.19153976 65.31959534 349.88497925
-20.54445839 64.85217285 352.52615356
-20.58518982 64.75967407 353.46200562
-20.24083328 64.73802185 353.92028809
-17.23466492 65.02485657 355.64706421
-19.43023491 63.15998459 362.95803833
-19.10421944 63.13615417 363.41931152
-19.16567993 63.04507065 364.33526611
-25.43410873 65.03331757 344.42456055
-21.16250038 64.79146576 349.85971069
-20.26771164 64.78501129 350.53265381
-17.00882149 64.53147125 355.38436890
-15.98981190 64.46364594 356.77890015
-19.40456009 62.64020920 362.93579102
-19.07850838 62.61639023 363.39712524
-19.14061356 62.52606964 364.31384277
-25.72484779 64.38618469 344.78720093
-25.83949089 64.17780304 345.80276489
-25.78540993 64.02113342 346.60525513
-21.05891609 64.77783966 347.15530396
-20.89701843 64.72168732 347.85662842
-20.58937454 64.27725983 350.04989624
-20.23937225 64.25601959 350.50817871
-20.08427811 64.19955444 351.20837402
-20.48790550 63.79839706 352.47723389
-20.52866936 63.70759964 353.41308594
-19.45346260 63.73274231 353.85488892
-17.12459183 64.05950165 354.65762329
-17.10501862 63.89807129 355.46957397
-16.04962730 63.79508972 356.79910278
-19.37872887 62.12035751 362.91369629
-19.43921471 62.03096008 363.83059692
-19.11490822 62.00700378 364.29168701
-18.79145050 61.98299408 364.75338745
-25.73968315 63.58475113 345.64468384
-25.56878853 63.53070450 346.33673096
-20.92114258 64.14420319 346.93045044
-20.86764145 64.19133759 347.83145142
-20.17201233 63.81774139 349.53906250
-20.21024132 63.72700500 350.48297119
-19.86097145 63.70558548 350.94186401
-20.45962906 63.27139282 352.45281982
-19.76935768 63.22747803 353.37091064
-17.09683037 63.52955246 354.63381958
-17.32437515 63.16151428 355.66326904
-16.98447037 63.13867188 356.12689209
-16.10874367 63.12699127 356.81860352
-19.48702049 61.65670013 362.20172119
-19.54622459 61.56808472 363.11999512
-19.41353989 61.51189041 363.80850220
-25.48573494 62.95481491 346.21099854
-20.14291191 63.28783035 349.51379395
-19.83247948 63.17629242 350.91738892
-19.69748116 62.78969193 352.40756226
-19.74102020 62.70018387 353.34637451
-19.39748955 62.67800903 353.80670166
-17.06913185 62.99952698 354.60998535
-19.58130455 61.03534317 362.28283691
-19.60458946 60.91317368 363.13854980
-19.47193336 60.85739517 363.82696533
-19.14835548 60.83318329 364.28869629
-24.94609642 62.58026123 345.55334473
-20.61465073 63.16452408 347.53576660
-20.30844307 62.72395706 349.73226929
-19.99752426 62.61322784 351.13363647
-19.66843987 62.26147461 352.38238525
-19.71256065 62.17269516 353.32205200
-19.02638054 62.12800217 354.24313354
-17.12849236 62.33137894 354.63067627
-17.07165718 62.13706207 355.37719727
-16.19379234 62.12439346 356.06811523
-15.85562897 62.10107422 356.53430176
-19.20696449 60.17878342 364.30694580
-23.61921692 62.85181046 343.16961670
-24.55909348 62.03286743 345.97879028
-20.51148033 62.56446457 347.37615967
-20.83659554 61.85398102 350.28155518
-20.68095398 61.79927826 350.98104858
-19.83434105 61.70031357 352.59793091
-19.68428421 61.64511490 353.29769897
-18.99871254 61.60026169 354.21936035
-17.04392624 61.60762405 355.35339355
-15.42827988 61.63695145 356.03271484
-19.92924309 60.08793259 361.90350342
-19.18119621 59.65972900 364.28485107
-23.77478600 61.96182251 344.18225098
-20.40676498 61.71886444 348.97998047
-21.00020790 61.29297256 350.49798584
-20.84496498 61.23867416 351.19708252
-19.80581856 61.17221451 352.57357788
-17.15871811 61.13349533 354.62609863
-17.01613617 61.07797241 355.32962036
-19.83089828 59.49832916 361.75543213
-19.66055107 59.40888596 362.38293457
-19.33386230 59.38482285 362.84353638
-19.28671074 59.19519806 363.57418823
-23.55397987 61.46484375 343.90878296
-23.57402229 61.37924957 344.85397339
-23.76403618 61.02209473 345.88980103
-19.87504578 61.49642563 346.54278564
-19.95275688 61.34057617 347.51730347
-20.79527664 60.93528366 349.38665771
-20.97092438 60.76484680 350.47290039
-20.81571007 60.71084976 351.17202759
-19.77735901 60.64405441 352.54919434
-16.79022980 60.58020782 355.06668091
-15.77317047 60.51011276 356.46337891
-19.29789734 59.13819504 361.16882324
-19.20002556 58.75970078 362.63369751
-19.26088142 58.67554474 363.55203247
-23.14281273 60.99896622 343.38739014
-22.97215843 60.94614410 344.08761597
-24.11172485 60.43068695 346.35214233
-23.94543648 60.37810898 347.04812622
-19.88780594 60.89468384 346.53973389
-21.09856033 60.29006577 349.74853516
-20.94173050 60.23653030 350.44787598
-20.59401703 60.21435928 350.90658569
-19.55450630 60.14724350 352.28479004
-19.21011734 60.12465286 352.74594116
-16.36559486 60.11325836 354.56365967
-16.42323494 60.02651596 355.50869751
-16.08412170 60.00305176 355.97421265
-15.94596672 59.94791412 356.67922974
-19.27124214 58.61650085 361.14602661
-19.17337036 58.23910522 362.61077881
-22.75046921 60.44702148 343.81350708
-23.89220047 59.93442917 346.08169556
-23.72615623 59.88199234 346.77899170
-23.64509773 59.69452667 347.52017212
-21.06918526 59.76124191 349.72351074
-20.91314888 59.70803070 350.42361450
-20.56470108 59.68582535 350.88159180
-20.21793365 59.66341782 351.34082031
-19.52589226 59.61835861 352.26052856
-19.26710129 59.45957184 352.76483154
-16.33777428 59.58182144 354.53985596
-16.19619942 59.52718735 355.24523926
-16.05633163 59.47251511 355.95046997
-15.91814423 59.41778946 356.65539551
-19.36607552 57.99520493 361.22796631
-19.19575882 57.90648651 361.85693359
-23.01806641 59.66530609 345.02844238
-20.84621048 59.26312637 349.45492554
-19.66889763 58.81760788 352.32391357
-16.65058708 59.07391357 354.05020142
-16.30985832 59.05039215 354.51602173
-16.16831589 58.99616241 355.22143555
-16.02918243 58.94182968 355.92739868
-18.63656425 57.65983582 360.40713501
-23.45183754 58.93895340 345.53921509
-23.28567123 58.88704300 346.23797607
-23.12115097 58.83520508 346.93655396
-20.39445305 58.87734985 347.99645996
-20.62378120 58.76394653 349.18716431
-20.46750069 58.71128464 349.88882446
-20.11917686 58.68880844 350.34811401
-19.77155304 58.66618347 350.80813599
-19.42414474 58.64356613 351.26791382
-19.07817078 58.62083435 351.72909546
-16.62267303 58.54237747 354.02639771
-16.28191376 58.51887512 354.49227905
-16.14043045 58.46503830 355.19775391
-16.00123787 58.41099930 355.90365601
-18.99788094 57.07918930 360.84741211
-17.62568283 57.06290054 361.77536011
-23.06513596 58.38815308 345.96701050
-22.90074158 58.33653641 346.66683960
-22.63127327 58.17980957 347.16647339
-20.40074348 58.26372528 348.91857910
-20.24412727 58.21146011 349.62054443
-20.08976936 58.15899277 350.32315063
-19.39540863 58.11359024 351.24368286
-19.04949379 58.09064865 351.70477295
-16.59469986 58.01085281 354.00271606
-16.25326729 57.98719406 354.46777344
-16.20061684 57.79709244 355.21762085
-16.06151199 57.74354935 355.92352295
-17.52651215 56.46825027 361.62615967
-22.82010269 57.96896744 344.74902344
-22.65350914 57.91769028 345.44976807
-22.16269684 57.76347733 347.55126953
-19.82666397 57.73994827 349.10873413
-16.36701965 57.50856018 353.73690796
-16.22520256 57.45545197 354.44412231
-16.26082993 57.12944412 355.23745728
-19.40992928 56.11037445 359.64648438
-19.63737488 55.76315689 360.65396118
-19.50234032 55.71118164 361.34634399
-22.43163109 57.41630554 345.17709351
-22.45811462 57.33619308 346.12478638
-22.13261795 57.23410416 347.52560425
-19.60188675 57.23774338 348.83883667
-19.44697762 57.18589783 349.54345703
-15.88400841 57.11636353 352.27755737
-16.13936996 57.00536346 353.47106934
-16.48402214 56.75868607 354.70434570
-19.52105522 55.63882065 358.92993164
-19.57660294 55.55986404 359.85656738
-19.80316734 55.21425247 360.86224365
-19.47623444 55.18962479 361.32431030
-22.23578072 56.83461761 345.85253906
-22.44156075 56.56650925 346.94116211
-22.18767738 56.57004547 347.54513550
-21.75064659 56.68218231 347.95709229
-19.22186470 56.68299484 349.27377319
-18.96252060 56.49966049 351.63125610
-16.25418854 56.52484131 352.73901367
-16.31091499 56.44390106 353.68954468
-19.73655319 54.91930389 359.11734009
-19.72029114 54.77027130 359.91595459
-19.77706146 54.69269180 360.84027100
-19.44942474 54.66793060 361.30166626
-21.90124130 56.54555130 344.58486938
-21.82136917 56.36022186 345.33346558
-22.59512138 55.92899704 347.10845947
-21.50715256 55.93934250 347.53219604
-18.80116463 56.20730972 348.75939941
-16.37016678 56.04343796 352.00588989
-16.22618103 55.99151993 352.71520996
-19.83025932 54.29855347 359.19909668
-19.69338989 54.24777222 359.89331055
-19.42322540 54.14618301 361.27975464
-18.67592049 57.17390060 339.83660889
-21.95614433 55.87850571 344.60446167
-21.98308945 55.80056763 345.55459595
-18.57528496 55.70194626 348.48880005
-16.34127617 55.50966263 351.98141479
-16.39650536 55.43039322 352.93347168
-16.05495262 55.40637589 353.40011597
-19.38401031 54.14425659 357.93121338
-19.80332756 53.77555084 359.17633057
-19.66649055 53.72516632 359.87063599
-19.20336151 53.64987183 361.02648926
-18.24716949 56.69112778 339.29611206
-22.39367485 55.15741348 345.11755371
-22.42092514 55.08064270 346.06610107
-22.34359169 54.89713287 346.81237793
-21.44668770 54.87838745 347.48092651
-18.74179459 55.14075470 348.70932007
-19.34990120 54.73916245 350.23745728
-19.01768303 54.87718582 350.80206299
-16.65713882 54.99955368 351.49157715
-16.31238174 54.97568512 351.95706177
-16.45650673 54.76164246 352.95343018
-16.27712059 54.67436600 353.59548950
-19.60005760 53.42498016 358.11968994
-19.77630424 53.25245285 359.15380859
-19.63952827 53.20246506 359.84808350
-19.31100845 53.17758179 360.31030273
-18.21488571 56.14917755 339.26873779
-22.44873428 54.49217987 345.13696289
-22.47522354 54.41643524 346.08505249
-22.12152863 54.39359665 346.54119873
-21.41636658 54.34772491 347.45532227
-18.31847000 54.66130447 348.19165039
-19.32021904 54.20783997 350.21249390
-18.97378349 54.18418884 350.67413330
-16.62821770 54.46558380 351.46725464
-16.51592827 54.09326172 352.97274780
-16.37353134 54.04256058 353.68066406
-19.69425011 52.80378342 358.20220947
-19.55610085 52.75408554 358.89785767
-19.41889763 52.70438385 359.59252930
-19.28407669 52.65470505 360.28765869
-18.95647049 52.62966537 360.75045776
-18.38055801 55.57912445 339.49768066
-22.41758728 53.96096039 345.11083984
-22.44493103 53.88597870 346.05950928
-21.54619598 53.86604691 346.72689819
-21.38601112 53.81695175 347.42977905
-18.28869057 54.12678528 348.16656494
-19.29074860 53.67651749 350.18753052
-16.40001678 53.95782852 351.19866943
-16.25508499 53.90737534 351.90914917
-16.48776817 53.56033325 352.94903564
-19.66713524 52.27959061 358.17962646
-19.52907753 52.23028183 358.87518311
-19.39193726 52.18098068 359.56979370
-18.53852272 54.91173935 339.66268921
-22.19567490 53.45518875 344.83786011
-22.22249985 53.38098526 345.78701782
-21.51577950 53.33477783 346.70132446
-21.35562706 53.28598404 347.40423584
-18.40768814 53.47399139 348.27569580
-18.94283104 53.26855469 349.80847168
-16.17120361 53.44911575 350.92932129
-16.31444359 53.23799133 351.92825317
-16.13396072 53.15150452 352.57147217
-19.63937950 51.75532913 358.15625000
-19.50190163 51.70636749 358.85256958
-19.36485291 51.65748596 359.54721069
-19.08658600 54.14284897 340.30627441
-19.11691093 54.06694412 341.27560425
-22.00016022 52.87501907 345.51446533
-21.29261780 52.82858658 346.42956543
-21.32524300 52.75503159 347.37881470
-18.79784966 52.73762512 348.69830322
-18.84078598 52.66349030 349.65014648
-16.17513275 52.59396362 351.70410156
-16.42992592 52.49407578 352.90045166
-16.48717499 52.41952133 353.85089111
-19.41877556 51.25452042 357.89907837
-19.47414589 51.18242645 358.82928467
-19.14480019 51.15734482 359.29235840
-18.81563759 51.13217163 359.75521851
-18.85756111 53.62891769 340.02420044
-19.07193565 53.36450577 341.14245605
-21.77766800 52.36794281 345.24188232
-21.10168076 52.24853516 347.10726929
-18.76737213 52.20426559 348.67269897
-18.81101227 52.13086700 349.62521362
-16.54440498 52.01002502 352.16714478
-16.57985687 51.69197083 352.96398926
-19.00419998 50.77594757 357.40634155
-19.05999565 50.70443726 358.33895874
-19.11698341 50.63320160 359.26904297
-18.78855133 50.60796738 359.73266602
-18.62786293 53.11392975 339.74139404
-19.22985268 52.71805954 341.31600952
-21.58462715 51.78792572 345.92034912
-18.54151917 51.69491959 348.40194702
-16.06275368 51.59782791 350.69937134
-16.31592751 51.50045776 351.89874268
-19.83539581 50.27738190 356.69317627
-18.83829498 50.20208740 358.08129883
-18.98237801 49.99974442 359.05368042
-18.39679337 52.59805679 339.45690918
-20.54607773 51.76225281 342.89627075
-20.76967621 51.66596985 344.10494995
-20.97526360 51.32750320 345.15209961
-18.90325165 51.11309433 348.86807251
-16.23246956 51.03833389 350.91961670
-16.28743172 50.96602631 351.87524414
-20.00015068 49.72964096 356.90527344
-18.81047630 49.67644501 358.05795288
-18.60723686 51.96362305 339.71017456
-18.77253151 51.68846512 340.75387573
-20.93206596 51.10727692 344.32821655
-20.78313446 50.74677658 345.83236694
-18.63461304 50.67402267 347.64221191
-16.40236855 50.47964096 351.13989258
-20.11334801 49.25148392 356.18478394
-19.97208786 49.20449448 356.88208008
-18.64628029 49.08483124 357.82702637
-20.75912666 50.42649078 344.03067017
-20.36474800 50.25941467 345.31063843
-18.40766144 50.16220856 347.36941528
-19.89222527 48.74726868 355.92507935
-18.36634064 48.66758347 357.54168701
-18.10066414 50.99569702 339.11807251
-20.65683746 49.81803513 343.86810303
-20.13950539 49.74760437 345.03619385
-18.49214172 49.74320221 345.67385864
-18.18074036 49.64937592 347.09664917
-15.50975132 49.81573486 349.30459595
-20.05716324 48.20006943 356.13842773
-18.14393234 48.16159058 357.28308105
-18.12716103 50.36326218 339.12179565
-21.01210022 49.23834229 344.34072876
-20.30253792 49.19042969 345.25906372
-18.12594604 49.42693710 346.26831055
-15.68031979 49.25542068 349.52700806
-19.97772789 47.74063110 355.17941284
-19.83600807 47.69478989 355.87866211
-19.50184059 47.66952896 356.34082031
-17.31067848 50.07724762 338.17019653
-21.14311790 48.74956512 343.60632324
-20.27105331 48.65571976 345.23291016
-18.34060669 48.80295563 345.57641602
-18.14819336 48.71964264 346.22015381
-15.82469368 48.61283493 348.74139404
-16.42903709 48.38555145 350.32958984
-19.36929512 47.27451324 354.44183350
-18.08774376 47.10661316 357.23648071
-17.66910172 47.21234894 357.66076660
-17.98444939 49.12056351 338.87429810
-20.91882133 48.23587418 343.33087158
-20.75521851 48.19049072 344.03878784
-18.39838028 48.13271713 345.59570313
-18.24225044 48.08690262 346.30752563
-16.14708900 47.93811417 349.09927368
-16.39974785 47.84968948 350.30545044
-19.34104729 46.74617004 354.41864014
-19.05822182 46.65569305 355.82089233
-18.72426605 46.63026047 356.28421021
-18.39183617 46.60461426 356.74877930
-18.05958939 46.57896805 357.21325684
-17.72889709 46.55311584 357.67892456
-18.14966965 48.55538559 339.10409546
-20.67814255 47.56231308 343.89926147
-20.73862076 47.34660721 344.81204224
-20.68406296 47.41288376 345.72259521
-18.01493263 47.57096100 346.03341675
-16.26461792 47.44662857 348.35964966
-16.11709595 47.40080261 349.07427979
-16.41488838 47.24735260 350.30288696
-18.83538628 46.14740753 355.55975342
-18.78393936 45.97182465 356.30255127
-18.36371231 46.07686234 356.72555542
-18.71017838 47.94830704 339.84695435
-20.51377487 46.83201599 344.53698730
-20.54689026 46.76741791 345.49343872
-17.63215256 47.00883102 346.47183228
-15.94376469 47.06259918 348.04119873
-16.08685875 46.86338806 349.04943848
-18.55840111 45.70150375 354.35681152
-18.51148987 45.28783035 356.78518677
-18.37459373 45.24347687 357.48565674
-19.64196014 47.05842209 340.93344116
-20.07792854 46.64427948 343.20932007
-20.67561913 46.27729416 344.75979614
-20.32222557 46.25266266 345.21963501
-17.95238113 46.49617386 345.98175049
-17.60115433 46.47125626 346.44638062
-15.80429840 46.41065979 347.81240845
-16.05683327 46.32585907 349.02456665
-15.91154003 46.28082657 349.73989868
-16.14691925 45.95109177 350.78695679
-18.33394814 45.19051361 354.09277344
-18.77809906 45.09099579 355.51266479
-18.15212250 44.73429489 357.22680664
-19.38406372 46.60320663 339.68206787
-19.60924911 46.51897049 340.90664673
-20.23472404 46.00660324 343.38049316
-20.25655365 45.78075409 344.23516846
-20.29000664 45.71780014 345.19277954
-18.17244720 45.76961899 346.18243408
-15.97370625 45.85234070 348.03594971
-16.11725998 45.65573120 349.04403687
-15.97202778 45.61108780 349.75930786
-16.32303047 45.47794342 351.06054688
-18.83780289 44.43244934 355.53103638
-18.61118507 44.51890182 356.19158936
-18.36704445 44.36283112 356.69741821
-18.12387848 44.20654297 357.20361328
-19.35068130 46.06230927 339.65451050
-19.66631889 45.84722137 340.92648315
-19.59169960 45.67129517 341.68746948
-19.83654404 45.28236008 343.70861816
-20.06525040 45.20134735 344.91897583
-15.74308872 45.33259583 347.76184082
-16.17765617 44.98579025 349.06350708
-16.23182869 44.92306519 350.02487183
-16.68362808 44.82387924 351.47225952
-18.36923599 43.76538849 355.77548218
-18.23173141 43.72206497 356.47799683
-19.72338676 45.17578506 340.94631958
-19.75427246 45.11357498 341.91351318
-19.80465698 44.74544525 343.68261719
-19.83856773 44.68396759 344.64270020
-15.51243687 44.81183243 347.48785400
-16.14751053 44.44837570 349.03869629
-16.72540665 44.25692368 350.60229492
-16.74439430 44.15761948 351.49166870
-18.44272232 43.58249664 354.26190186
-18.20339203 43.19372559 356.45489502
-19.29953194 44.67290497 340.41061401
-19.72165489 44.57491684 341.88674927
-19.61240578 44.16551208 344.36724854
-17.96581841 44.14304733 345.00561523
-18.00757408 44.08202362 345.96926880
-15.83498955 44.14124298 347.84719849
-16.75031090 43.55202866 350.55459595
-16.80448914 43.49164963 351.51049805
-18.50242615 42.92265701 354.28018188
-18.36226463 42.88008118 354.98367310
-18.31268120 42.70770645 355.72918701
-17.97991371 42.68155670 356.19400024
-19.34156227 44.30691910 339.61978149
-19.26618004 44.13241196 340.38299561
-19.49335670 44.05397415 341.60623169
-19.38560295 43.64603424 344.09097290
-18.28726768 43.62994003 344.51571655
-17.93408585 43.60452652 344.97940063
-16.03395844 43.43333435 348.02514648
-18.57196045 42.73060608 351.83462524
-18.57923698 42.73688507 352.76156616
-17.99344635 42.55481720 353.73388672
-18.08877563 42.19469070 355.46725464
-19.23343849 43.59166336 340.35626221
-19.26548576 43.53188705 341.32653809
-18.92686081 42.15976715 351.36776733
-18.78154182 42.11786270 352.07373047
-18.63842201 42.07594681 352.78021240
-18.30046654 42.04979324 353.24453735
-17.96422005 42.02364349 353.71002197
-17.62876892 41.99742508 354.17608643
-17.86490059 41.68058777 355.20523071
-18.32240105 43.25067520 339.25781250
-19.03633118 43.00878906 341.04525757
-18.87431335 42.96667099 341.76168823
-18.57676888 42.57843399 343.99972534
-18.22352600 42.55282211 344.46353149
-17.71656799 42.48505020 345.64266968
-18.89680862 41.62783432 351.34338379
-18.87609673 41.49503708 352.15850830
-18.69797134 41.41540527 352.79852295
-18.36090088 41.38919449 353.26333618
-18.02468681 41.36285019 353.72882080
-17.68938637 41.33653641 354.19464111
-18.77479172 42.54281616 339.79098511
-18.61097527 42.50098038 340.50927734
-17.83922195 41.98835373 344.90179443
-17.48768806 41.96252823 345.36676025
-18.47630119 41.12585449 350.83212280
-18.75752068 40.75527573 352.81680298
-18.42063332 40.72886276 353.28149414
-19.29887772 42.01024246 339.55776978
-19.13371658 41.96881866 340.27453613
-18.80879974 41.88607025 341.70819092
-17.60933304 41.46481705 344.62402344
-17.65352821 41.40798187 345.59121704
-18.44622040 40.59272385 350.80752563
-18.49768639 40.53731537 351.75955200
-19.35698128 41.33804703 339.57806396
-19.58306313 41.26642609 340.80407715
-18.11543274 41.22010040 341.68261719
-17.38008308 40.94025421 344.34695435
-17.42379189 40.88431549 345.31478882
-18.55872154 39.98810959 350.92654419
-18.75143051 39.86227417 352.01931763
-18.69824409 39.69325638 352.76846313
-18.36138916 39.66675949 353.23318481
-19.41438675 40.66620255 339.59750366
-19.64058876 40.59608459 340.82373047
-19.47726250 40.55568695 341.53869629
-17.34804344 40.40004730 344.32092285
-17.59027481 40.33041763 345.53997803
-17.99474144 39.55358124 350.27099609
-18.61681747 39.21525192 351.79605103
-18.13644409 39.14871979 352.96774292
-19.41183281 40.07032776 340.54187012
-19.44437027 40.01594162 341.51199341
-17.51397514 39.84564972 344.54672241
-17.36044502 39.80554581 345.26342773
-16.16457558 39.68648529 347.38104248
-18.16025543 39.00598526 350.49072266
-18.24887276 38.65641022 352.23706055
-17.91143799 38.62969971 352.70230103
-19.18294907 39.54345322 340.25994873
-19.05454254 39.45008850 341.94726563
-17.94991493 39.42537308 342.36755371
-17.89914131 39.50177383 343.29324341
-15.93401241 39.16054153 347.10647583
-18.13002014 38.47205353 350.46630859
-18.07628632 38.30418396 351.21890259
-18.21875954 38.12408066 352.21258545
-17.88196564 38.09732819 352.67852783
-19.14926147 39.00215149 340.23266602
-19.37861443 38.93603134 341.45886230
-19.02228928 38.90996552 341.92141724
-18.31128693 38.85763931 342.84768677
-17.95725060 38.83142853 343.31219482
-17.60419083 38.80516052 343.77725220
-17.29700661 38.72627258 345.21221924
-15.90267372 38.62057495 347.08117676
-18.13598824 37.64235306 351.23687744
-17.99347878 37.60351563 351.94586182
-17.85246277 37.56473541 352.65478516
-19.11630440 38.46069336 340.20605469
-18.95364952 38.42156601 340.92333984
-18.88419533 38.25324249 341.68673706
-18.72480583 38.21431732 342.40359497
-18.37021828 38.18796158 342.86724854
-18.01642609 38.16153717 343.33154297
-17.66339684 38.13507462 343.79644775
-17.54462814 38.13503647 344.58291626
-15.96410942 37.95068359 347.10113525
-16.18046379 37.84788895 348.24801636
-17.76736832 37.08201218 351.67849731
-18.35412025 37.62002563 340.94293213
-18.78297424 37.54509354 342.42257690
-18.42927361 37.51847458 342.88681030
-18.07563400 37.49196625 343.35083008
-17.72272301 37.46528244 343.81567383
-17.02008247 37.41202927 344.74774170
-16.02490044 37.28105164 347.12026978
-16.47579956 37.20713043 348.58309937
-17.43174934 36.77596664 350.48016357
-17.54129219 36.55951309 351.41098022
-18.39634895 36.97821045 342.86013794
-18.04270744 36.95159912 343.32431030
-17.69050026 36.92487335 343.78976440
-16.98794937 36.87141037 344.72174072
-15.79372787 36.75247192 346.84469604
-16.53604507 36.54045868 348.60156250
-17.45693207 36.07372284 350.43096924
-17.31451225 36.03596497 351.14273071
-18.87639046 36.50240707 341.65258789
-18.71709251 36.46458054 342.36947632
-18.36342239 36.43785095 342.83361816
-18.01039314 36.41108704 343.29846191
-17.65833855 36.38436890 343.76391602
-17.30701637 36.35749817 344.22988892
-16.95578766 36.33071899 344.69586182
-17.00346756 36.28184509 345.66583252
-16.79536819 35.86319351 348.86834717
-19.19902992 35.98836899 341.16284180
-19.03857231 35.95099258 341.87942505
-18.33037567 35.89741516 342.80712891
-17.97743797 35.87055206 343.27188110
-17.62541389 35.84371185 343.73724365
-17.27403069 35.81683731 344.20324707
-16.92429352 35.78985214 344.67056274
-16.97118187 35.74181366 345.64004517
-15.58505821 35.63385391 347.51345825
-17.01701927 35.26844788 350.05151367
-19.29192924 35.35890579 341.25152588
-19.48762703 35.26251984 342.40490723
-18.58575821 35.21876144 343.07901001
-17.94515419 35.32983017 343.24609375
-17.59306717 35.30290604 343.71145630
-17.24180794 35.27593613 344.17739868
-16.89200974 35.24884033 344.64474487
-16.74101448 35.21176529 345.36343384
-15.15327930 35.11325073 346.98812866
-19.51102257 34.64165115 341.45520020
-19.54591751 34.59558868 342.42391968
-19.19316673 34.56848145 342.88708496
-18.84050179 34.54147339 343.35028076
-17.56075287 34.76199722 343.68566895
-17.20945930 34.73491669 344.15164185
-16.85969543 34.70783234 344.61889648
-16.51001930 34.68064499 345.08605957
-15.12178707 34.57179260 346.96286011
-19.51287270 34.05622101 342.39752197
-19.16011810 34.02901459 342.86074829
-18.80815697 34.00185394 343.32455444
-16.78076553 34.21208191 343.62039185
-16.82731819 34.16662979 344.59310913
-14.88951111 34.03927612 346.68670654
-17.10715866 33.40510559 350.06320190
-11.66191864 34.22688675 348.26300049
-19.24860191 33.56972122 341.14715576
-19.28453827 33.52533722 342.11776733
-19.12704277 33.48955917 342.83432007
-18.77517128 33.46231079 343.29812622
-16.68909836 33.50603867 344.35964966
-16.64063644 33.50699997 345.23284912
-15.05874157 33.48857117 346.91241455
-11.79198837 33.62466049 348.40704346
-19.01995850 33.03700256 340.86605835
-18.86081505 33.00142288 341.58432007
-19.09393501 32.94979858 342.80801392
-18.74212456 32.92253113 343.27172852
-18.39156723 32.89507294 343.73690796
-16.94805145 32.82870865 344.63107300
-16.59941483 32.80117035 345.09857178
-15.02779865 32.94675827 346.88793945
-14.68306732 32.91934586 347.35873413
-12.19812393 32.97824860 347.95034790
-18.82697487 32.46031570 341.55718994
-18.66938782 32.42527008 342.27542114
-18.51354218 32.39019775 342.99337769
-18.35854912 32.35520554 343.71051025
-17.26507568 32.31507111 344.13833618
-17.01406670 32.20279694 346.54473877
-14.18965435 32.43524170 345.85494995
-16.43682671 32.06349182 349.41247559
-12.46778774 32.29681396 348.22219849
-18.98970795 31.91193390 341.78524780
-18.63621902 31.88432312 342.24902344
-18.48040390 31.84974098 342.96701050
-18.32608223 31.81511307 343.68481445
-17.23196602 31.77392769 344.11193848
-16.88323784 31.74628639 344.57955933
-16.53545380 31.71859741 345.04766846
-16.58930206 31.27256203 349.47305298
-12.43687153 31.75250053 348.19760132
-18.31298828 31.23131371 342.71762085
-17.54892921 31.26039505 343.61926270
-16.65196609 31.21143532 344.30075073
-16.50295639 31.17718506 345.02191162
-16.26217270 31.06823158 347.43127441
-16.06800652 30.87392616 348.90982056
-17.86674500 30.74682617 343.12713623
-17.51642990 30.71898842 343.59356689
-16.61949730 30.66953278 344.27505493
-16.99058342 30.45521927 345.55767822
-15.80352879 30.30027390 348.56970215
-17.08766937 30.18881607 343.06048584
-16.38813400 30.13297844 343.99630737
-17.41622162 29.81988144 346.06384277
-17.46580505 29.78142738 347.03005981
-15.90043163 29.67479134 348.65634155
-17.05446815 29.64627266 343.03396606
-16.35560417 29.59027863 343.97061157
-16.89505005 29.41624260 345.49185181
-17.43410110 29.24286270 347.00524902
-16.01141739 29.16813850 347.91342163
-17.34812546 29.01354408 343.37686157
-16.61544609 28.91688156 344.24270630
-16.95621109 28.74949265 345.51092529
-15.97980595 28.62838173 347.88836670
-17.91989326 28.32953453 343.11230469
-17.57067490 28.30135727 343.57894897
-16.47859573 28.25265121 344.00906372
-16.92371368 28.20879364 345.48522949
-15.94813347 28.08841896 347.86334229
-18.23731232 27.81634903 342.62069702
-17.08980560 27.66456413 345.71170044
-16.94330025 27.63303566 346.43060303
-15.71695042 27.55159187 347.58853149
-18.39989662 27.27182198 342.84771729
-16.61072350 27.16438103 344.20959473
-15.48637772 27.01370811 347.31448364
-18.36644936 26.73066330 342.82159424
-16.37999725 26.62438774 343.93133545
-16.82731438 26.58604050 345.41009521
-15.79659653 26.50085449 346.81875610
-16.34661293 26.08153152 343.90502930
-16.05311012 26.02034378 345.35055542
-15.69405270 25.87760162 346.65533447
-17.16198540 25.62594032 342.22000122
-16.11442184 25.53995323 343.62527466
-22.99531364 24.56167030 342.03982544
-17.12838554 25.08249283 342.19378662
-16.08167648 24.99624634 343.59970093
-15.58851528 24.93775940 344.79397583
-15.64356327 24.90712929 345.76947021
-22.77234268 24.02626801 341.76287842
-22.80485725 24.07786751 342.77740479
-22.64287376 23.96772575 343.43148804
-16.69551468 24.45754623 341.60162354
-16.54667091 24.51072884 342.38076782
-16.04890060 24.45244217 343.57406616
-15.70527458 24.24039078 345.78796387
-22.98779488 23.43326378 343.90368652
-16.16403580 23.93757629 342.82376099
-15.81588554 23.90872002 343.29357910
-15.12269497 23.85089302 344.23568726
-15.76799393 23.57380676 345.80694580
-22.70396614 22.95374870 341.70993042
-22.73406029 22.92590904 342.67071533
-15.08988857 23.30627823 344.21008301
-22.44433784 22.30777931 342.25546265
-22.44326782 22.24030495 343.14727783
-22.28727913 22.21238327 343.85751343
-15.71731853 22.59900093 344.91949463
-22.65902519 21.61138916 342.45535278
-22.50093079 21.58385086 343.16488647
-22.34423828 21.55638885 343.87448120
-22.18858337 21.52903366 344.58309937
-15.61467934 21.97232056 344.75457764
-15.83187771 21.58123970 344.21466064
-22.56009674 20.56356621 341.44052124
-22.02776146 20.77519798 341.81280518
-21.77181435 20.62509346 342.31790161
-21.70686531 20.47763062 343.07315063
-21.55206490 20.45099449 343.78512573
-21.39821053 20.42436028 344.49627686
-22.52567863 20.02654839 341.41418457
-21.36464882 19.88839340 344.47058105
-22.49135399 19.48944473 341.38784790
-20.75787354 19.34093666 343.69595337
-22.48828316 18.93057251 342.32437134
-22.45386505 18.39415932 342.29815674
-18.38866997 17.91253662 344.52764893
-18.63091850 17.31786919 343.89627075
-18.67819595 17.29936028 344.86621094
-21.08662224 16.70587349 342.38861084
-19.47371864 16.59729767 343.02536011
-18.94153404 16.80723000 343.40432739
-18.59786987 16.77736282 343.87115479
-20.86089706 16.16089630 342.11068726
-18.90769386 16.26677513 343.37860107
-19.21358681 15.59198856 342.77572632
-18.96794701 15.60654354 343.39630127
-18.81943321 15.58359146 344.11505127
-18.76608086 15.44118595 344.87615967
-19.17741394 14.96916008 342.69451904
-19.02813911 14.94659996 343.41403198
-18.68483925 14.91643620 343.88046265
-18.73233414 14.90172005 344.85043335
-20.08220673 14.69543552 340.32647705
-19.89432144 14.63055038 340.97558594
-19.14351082 14.42829514 342.66879272
-18.99429703 14.40614223 343.38836670
-18.65106010 14.37597466 343.85473633
-20.10799980 13.99232388 340.27383423
-20.14639854 13.97867203 341.24719238
-19.99300385 13.95672417 341.96511841
-19.10967064 13.88733482 342.64312744
-18.96042442 13.86557770 343.36267090
-18.61788940 13.83525562 343.82968140
-19.87943459 13.44153118 339.99139404
-20.11164284 13.43776131 341.22091675
-19.95898056 13.41615772 341.93963623
-19.07564545 13.34627438 342.61749268
-18.92652321 13.32491684 343.33700562
-18.58401871 13.29459763 343.80401611
-19.98809433 12.84485817 340.11459351
-19.97851372 12.76912594 340.98471069
-19.19169044 12.82607841 341.87152100
-18.84674263 12.79555225 342.33804321
-18.64466667 12.63536358 343.82128906
-19.61562157 12.34683895 339.68267822
-18.12630272 12.19273853 343.24777222
-19.58073997 11.80373096 339.65649414
-19.42673492 11.78325272 340.37799072
-19.12345695 11.74255371 341.82040405
-18.43545341 11.68130493 342.75445557
-18.09224701 11.65077591 343.22210693
-19.19746590 11.22955990 340.09579468
-19.43056870 11.06708145 341.21630859
-19.08863831 11.20064735 341.79412842
-18.05895233 11.10865784 343.19720459
-19.20006752 10.43147182 340.87902832
-17.94135857 10.03092384 342.16879272
-18.93634033 9.33351135 340.57156372
-18.78566360 9.31487846 341.29403687
-18.16481018 9.33946323 342.37039185
-18.70682526 8.77717686 340.28942871
-18.55593300 8.75897217 341.01226807
-18.39192390 7.78860712 340.91760254
-16.67287636 7.77025890 341.51336670
-17.51989746 7.05325842 340.63464355
-17.35458565 5.94658947 342.29052734
-16.87441254 5.36954546 340.76968384
-17.12341881 5.38643694 342.00979614
-17.23387146 4.85663462 341.25723267
-17.08908463 4.84178162 341.98416138
-17.00181770 4.29436207 340.97445679
-17.35852623 3.53536963 341.29266357
-19.65771294 2.96033239 344.14437866
-28.94329071 128.05351257 354.03271484
-27.88282204 125.61834717 358.34286499
-29.44444656 126.44508362 354.73648071
-28.46787834 124.90627289 358.34722900
-27.83754730 124.83595276 358.70297241
-27.20843315 124.76354980 359.05966187
-30.12078094 126.20958710 353.83911133
-29.43026924 125.90704346 354.69100952
-28.44678497 124.23824310 358.46511841
-27.79260826 124.05465698 359.06121826
-27.17462349 123.82569885 359.50183105
-26.57679558 124.00237274 359.45709229
-30.09864235 125.53340912 353.95950317
-29.41612434 125.36995697 354.64550781
-28.37678337 123.34660339 359.06582642
-27.74773216 123.27533722 359.42053223
-27.16042137 123.29456329 359.45773315
-26.57320404 123.31273651 359.49584961
-30.08437347 124.99437714 353.91290283
-29.36888695 124.58020782 355.01220703
-28.36282539 122.81453705 359.02066040
-27.74447823 122.58661652 359.46029663
-27.15734673 122.60487366 359.49746704
-26.53006744 122.53436279 359.85528564
-30.11413765 124.54749298 353.53887939
-29.01087952 122.59989166 358.21725464
-28.34868431 122.28343201 358.97555542
-27.15427399 121.91609955 359.53826904
-31.31789207 121.74330139 358.44790649
-30.70963860 122.07704163 358.31030273
-28.33451271 121.75229645 358.93142700
-31.30387306 121.21222687 358.40286255
-30.65042114 121.21985626 358.80200195
-28.99320412 121.37711334 358.21182251
-28.31369400 121.08625793 359.04953003
-27.71318054 120.83670044 359.41098022
-27.12608337 120.85388947 359.44909668
-26.52764130 121.02858734 359.40417480
-31.28994560 120.68121338 358.35671997
-30.65769577 120.61427307 358.70663452
-28.97912216 120.84506226 358.16656494
-28.28616905 120.28733826 359.32974243
-27.69903946 120.30555725 359.36685181
-27.11187935 120.32274628 359.40499878
-26.52475166 120.33988190 359.44406128
-31.27586555 120.15017700 358.31057739
-30.64364624 120.08322144 358.66055298
-28.92229462 120.22527313 358.44213867
-28.33379364 120.24365997 358.47729492
-27.76788521 119.94670105 358.68420410
-27.13874435 119.87727356 359.04101563
-31.26175499 119.61808777 358.26544189
-30.65116119 119.47557831 358.56607056
-29.51833534 119.36154938 358.53176880
-28.91916084 119.53658295 358.48190308
-28.34197044 119.39729309 358.60299683
-27.75368309 119.41461945 358.63897705
-27.16542244 119.43084717 358.67697144
-25.90905762 119.29158783 359.39666748
-30.68058014 118.79347992 358.42044067
-30.09238815 118.81198120 358.45355225
-29.50419235 118.82951355 358.48660278
-28.32776833 118.86519623 358.55776978
-27.73947906 118.88146973 358.59475708
-27.15118790 118.89866638 358.63290405
-26.52238083 118.82917786 358.99166870
-25.85498047 118.67484283 359.67141724
-30.07827759 118.27990723 358.40841675
-29.49014091 118.29843140 358.44149780
-28.90179253 118.31582642 358.47659302
-28.31353378 118.33215332 358.51257324
-27.72527504 118.34941864 358.54959106
-27.12543297 118.10053253 358.91619873
-26.47952461 118.05564117 359.35345459
-25.85260773 117.98602295 359.71325684
-30.10803795 117.83245087 358.04339600
-29.47596931 117.76632690 358.39633179
-28.88768196 117.78370667 358.43139648
-28.29926872 117.80000305 358.46844482
-27.71097946 117.81726074 358.50540161
-27.06440544 117.35180664 359.35421753
-26.47730446 117.36686707 359.39419556
-25.85038948 117.29823303 359.75411987
-30.13764381 117.38401794 357.67822266
-29.50499916 117.31791687 358.03125000
-28.87341499 117.25060272 358.38720703
-28.28506470 117.26792145 358.42324829
-27.69662285 117.28414917 358.46124268
-27.05004883 116.81967163 359.31008911
-26.46297836 116.83473969 359.35006714
-25.83603287 116.76711273 359.70996094
-28.96839142 116.57241058 357.87408447
-28.35524940 116.90222168 357.73718262
-27.69428062 116.59535217 358.50201416
-27.07700157 116.37119293 358.94595337
-26.44871521 116.30359650 359.30593872
-25.81674194 116.10296631 359.82919312
-31.69608116 115.93501282 358.76663208
-29.51282692 118.57327271 352.24453735
-27.69194031 115.90653229 358.54382324
-27.06270599 115.83907318 358.90179443
-26.43429756 115.77146149 359.26177979
-31.72709274 115.48645020 358.40252686
-29.45425034 117.94599915 352.52859497
-28.79341125 117.47456360 353.39779663
-27.67764473 115.37346649 358.49862671
-27.08950424 115.38858032 358.53854370
-26.45552063 115.18995667 359.06185913
-25.85839272 114.94181061 359.43255615
-31.72386932 114.80081940 358.44149780
-31.09143639 114.73686981 358.79159546
-30.51550102 114.59874725 358.90969849
-28.95346069 117.27554321 352.03076172
-27.78937721 115.08743286 357.49227905
-27.07505798 114.85646820 358.49337769
-26.48688698 114.87049103 358.53424072
-31.72070694 114.11509705 358.48153687
-31.08836746 114.05117798 358.83157349
-30.50123787 114.06764221 358.86459351
-28.89503670 116.64817810 352.31582642
-27.80471039 114.79196167 357.03698730
-27.10215950 114.40400696 358.12905884
-26.43177223 114.25569153 358.81015015
-31.70659637 113.58408356 358.43539429
-31.07416534 113.52110291 358.78652954
-27.71853065 113.93752289 357.72375488
-27.12916946 113.95160675 357.76367188
-25.37447166 113.83788300 357.97518921
-31.73791122 113.13353729 358.07119751
-31.05987358 112.99008942 358.74041748
-29.38490868 113.19732666 358.20703125
-27.74618149 113.48415375 357.35742188
-27.11456680 113.41750336 357.71932983
-31.76910210 112.68100739 357.70681763
-27.77395439 113.02982330 356.99090576
-27.10021019 112.88342285 357.67407227
-25.37205887 113.00524139 357.47738647
-31.75474739 112.14893341 357.66165161
-31.13286781 111.93126678 358.09893799
-30.54479027 111.94671631 358.13287354
-27.75938225 112.49468994 356.94656372
-27.09875107 112.19351196 357.71682739
-25.41123390 112.39407349 357.19882202
-24.20918465 112.31424713 357.53225708
-31.78602982 111.69544983 357.29632568
-31.13055801 111.24550629 358.13992310
-27.12594414 111.73918152 357.35037231
-26.00066376 111.68914032 357.19976807
-25.41038322 111.70211792 357.24249268
-24.82022476 111.71492004 357.28732300
-24.19089890 111.64791107 357.65426636
-30.43926430 110.57383728 358.76522827
-27.14876556 111.33483124 356.95370483
-25.39581108 111.16596222 357.19808960
-24.80568314 111.17881775 357.24288940
-24.17626381 111.11174011 357.61083984
-31.10194016 110.18141174 358.04858398
-30.42484856 110.04277039 358.72018433
-27.15201187 110.59187317 357.02743530
-25.38123703 110.63079071 357.15478516
-24.79095840 110.64266968 357.19845581
-24.16160011 110.57655334 357.56750488
-31.08755302 109.65032959 358.00350952
-30.41043282 109.51068878 358.67498779
-29.82333183 109.52501678 358.71084595
-29.23620033 109.53928375 358.74777222
-27.13743973 110.05676270 356.98306274
-26.54713249 110.06980896 357.02389526
-25.36654282 110.09464264 357.11029053
-24.77623177 110.10649872 357.15502930
-24.14684296 110.04042816 357.52313232
-31.07310486 109.11826324 357.95831299
-30.45311928 108.90242004 358.39767456
-29.33479691 108.85175323 358.23916626
-26.57417107 109.61155701 356.65615845
-25.94228172 109.54666138 357.02218628
-25.35184860 109.55854797 357.06591797
-24.76153755 109.57038879 357.11062622
-24.14672470 109.34831238 357.56875610
-29.32038116 108.31964111 358.19500732
-26.60108376 109.15229034 356.28833008
-25.92755508 109.01052856 356.97781372
-25.33718491 109.02240753 357.02154541
-24.10728836 108.58042908 357.93588257
-30.57158852 107.91107941 357.43832397
