1.45141387 79.11577606 349.04528809
2.64816213 79.09536743 349.25363159
3.87836576 79.49526978 348.55865479
-17.34375381 72.88137817 368.11395264
-16.70983124 72.78624725 368.79763794
-15.06893539 72.85099792 368.42355347
-10.07241535 76.63281250 355.55596924
-9.45576859 76.57573700 355.97167969
-8.86707973 76.56790161 356.05807495
1.46560752 78.55409241 349.00549316
2.64601922 78.58672333 348.86459351
-17.33023071 72.35746765 368.07244873
-16.72885132 72.30650330 368.45263672
-15.62384987 72.33445740 368.30438232
-15.02436256 72.28298950 368.68762207
-10.08612537 76.13525391 355.18283081
-9.46886826 76.07842255 355.59954834
-8.85356808 75.88930511 356.30166626
1.47993827 77.99223328 348.96569824
2.64387655 78.07686615 348.47549438
3.33910823 78.27217102 349.07611084
-16.74778366 71.82578278 368.10763550
-14.53475475 71.88016510 367.81207275
-10.07195282 75.58785248 355.14193726
-9.48196888 75.58018494 355.22628784
1.49422371 77.43021393 348.92684937
4.47869539 77.75929260 348.14962769
-15.66006184 71.37093353 367.61224365
-15.09049320 71.36277771 367.69183350
-10.61966991 75.00009155 355.34692383
-9.46779537 75.03259277 355.18533325
-8.87799358 75.02455139 355.27075195
-8.28834343 75.01637268 355.35806274
1.50861573 76.86813354 348.88705444
3.87023544 76.92857361 348.61001587
4.46861887 76.91726685 348.71911621
-14.56925583 70.91359711 367.11764526
-13.96866894 70.86263275 367.50579834
-10.63255405 74.30469513 355.40243530
-9.48116779 74.33610535 355.24078369
-8.89154720 74.32778931 355.32717896
1.52297735 76.30596161 348.84716797
3.28586388 76.37601471 348.46395874
3.88456726 76.36494446 348.57107544
-15.17756367 70.98974609 365.49368286
-13.98552322 70.37821198 367.15759277
-10.64568233 73.60952759 355.45791626
-8.90524006 73.63132477 355.38360596
-8.25984478 73.92041779 355.27615356
1.47255182 75.43450165 349.01458740
2.70118737 75.82353210 348.31689453
3.30024147 75.81245422 348.42401123
3.89894485 75.80120850 348.53213501
-14.64696598 70.35271454 365.31155396
-10.60295582 73.01648712 355.74649048
-8.24555016 73.37223053 355.23519897
2.71567178 75.25991058 348.27795410
3.31469536 75.24872589 348.38507080
3.94384241 75.13710022 349.19503784
-14.05996609 69.81440735 365.35122681
-13.41556835 69.49399567 366.59500122
-10.64636326 72.65891266 354.82720947
-8.82079792 72.83270264 355.10589600
-7.75057983 72.61023712 354.81234741
2.73014092 74.69614410 348.23800659
3.31177878 74.48073578 348.80072021
-15.86288166 69.43441010 364.13677979
-15.28794289 69.42607117 364.21530151
-14.65635777 69.51811218 364.51574707
-10.04163933 72.00576782 355.08605957
-9.45199013 71.99704742 355.17239380
-7.73633003 72.06116486 354.77133179
3.32495236 73.66591644 349.56393433
-15.81653595 68.86233521 364.40658569
-15.21024227 68.81278229 364.79779053
-14.63649273 68.80415344 364.87725830
-13.51983070 68.82739258 364.72860718
-12.91619015 68.77723694 365.12384033
-10.08377934 71.54800415 354.37905884
-9.43775654 71.44923401 355.13046265
-7.74820757 71.55725861 354.39578247
3.32339144 73.15194702 349.17660522
-15.80261326 68.33158112 364.36563110
-15.19616795 68.28250122 364.75592041
-14.62241840 68.27360535 364.83639526
-12.99199963 68.36832428 364.14566040
-12.16931152 71.22969055 360.39514160
-10.06939220 70.99920654 354.33703613
-9.47867489 70.99028015 354.42333984
-7.70767832 70.96273804 354.68923950
3.33784485 72.58937073 349.13674927
-15.82105446 67.84088898 364.01196289
-14.60849667 67.74306488 364.79556274
-12.97798538 67.83597565 364.10467529
-12.37379646 67.78620148 364.50296021
-9.46428871 70.44129181 354.38128662
-8.87370682 70.43213654 354.46963501
-8.28341484 70.42282104 354.55792236
-15.20010471 67.26101685 364.36132813
-13.47775745 67.23346710 364.60684204
-11.84385872 67.32408905 363.91979980
-9.50560284 69.97941589 353.67202759
-8.29576492 69.91722870 354.18228149
0.34687543 72.06222534 346.56222534
2.80256271 71.38272095 349.64813232
-14.69913197 66.59775543 364.00262451
-14.06854153 66.75058746 364.17053223
-13.46368217 66.70191956 364.56585693
-9.49109268 69.42914581 353.62997437
-8.89942741 69.41983032 353.71823120
-8.28128719 69.36721802 354.14016724
-14.52742958 67.47586823 362.39837646
-13.41904545 66.13159180 364.83676147
-8.32046413 68.90259552 353.42965698
-14.67791653 65.77273560 363.37939453
-14.10239792 65.76332855 363.46090698
-13.52687836 65.75370026 363.54428101
-8.35994625 68.43618774 352.71505737
-13.57416821 65.29653168 362.87347412
-12.96756840 65.24861145 363.27185059
-13.59095764 64.79994202 362.51641846
-7.76450109 67.36290741 352.38500977
-7.13065815 66.75852203 352.77078247
-12.47393799 64.14089203 361.14535522
-11.34297562 63.79952621 361.82470703
-10.76531887 63.78886032 361.91204834
-11.93805504 63.48810577 360.96517944
-11.35784245 63.29922867 361.46441650
-8.25963688 65.63352203 352.84167480
-7.62173510 65.17182159 354.47259521
-11.43148136 62.87034225 360.46496582
-10.76531410 62.75081253 361.51144409
-8.24934006 64.80294037 353.45266724
-7.60711908 64.62180328 354.43051147
-10.72220135 62.17741776 361.78921509
-8.26319885 64.19756317 353.29327393
-7.59235001 64.07153320 354.38940430
-12.50185108 61.74305344 360.84863281
-8.27566719 63.68383408 352.91613770
-7.60407114 63.55915451 354.01327515
2.82989669 65.52416992 346.40106201
4.60030174 65.56822968 346.02410889
5.20123434 65.55509949 346.13708496
-8.28822803 63.16913223 352.53686523
-7.67187786 62.99842834 353.25610352
-7.08696890 62.74334335 353.92953491
2.84474850 64.95693207 346.36090088
4.61515379 64.99971008 345.98486328
5.21601009 64.98657990 346.09786987
-12.45115089 60.52745438 361.25302124
-11.89102268 60.30656815 361.67733765
-11.28490067 60.43562317 361.67178345
2.85969162 64.38967896 346.32073975
4.62997532 64.43114471 345.94464111
5.24562407 64.37778473 346.41366577
-11.90655804 59.80282974 361.31784058
-11.29919529 59.75802994 361.72442627
4.00771666 63.72394943 345.89974976
4.64485884 63.86244583 345.90536499
5.24573040 63.84906387 346.01934814
-11.19933796 59.46683502 361.81445313
-9.57813740 59.56608963 360.80648804
4.63922405 63.10340118 346.32760620
-11.35856915 58.78079224 360.68496704
-10.11384201 59.00524139 360.99502563
-10.09921646 58.46622849 360.95358276
-9.46258450 58.73479843 360.85800171
-10.79350281 59.15053940 361.74682617
-6.26465607 57.96720123 357.44757080
-0.60427719 59.30666733 351.83383179
-10.30990124 57.64803314 356.65237427
-0.58938330 58.74919891 351.79425049
-10.32495499 56.96076965 356.70742798
-9.74000263 56.94877243 356.79864502
-9.12729645 56.90525818 357.21813965
-7.37608480 56.86828613 357.50079346
-9.72503757 56.40277863 356.75674438
-9.14029884 56.39052200 356.84893799
-7.97156715 56.36581802 357.03631592
-7.38751411 56.35327530 357.13153076
-9.18160248 55.90545273 356.14926147
-8.54091454 55.83199310 356.90029907
-7.37262440 55.80680847 357.09063721
-3.99530673 56.26065826 354.83432007
-8.58108807 55.34564972 356.20043945
-7.99575329 55.33302689 356.29565430
-7.38411474 55.29026413 356.72030640
-4.60051489 55.57951736 354.79284668
-3.98035431 55.70920563 354.79315186
-8.00794601 54.81508636 355.92321777
-6.86307526 54.81910706 355.78506470
-6.27738905 54.80600357 355.88314819
-3.96534061 55.15758514 354.75296021
-3.37841749 55.14424515 354.85507202
-3.36343408 54.59242249 354.81488037
-5.76310778 53.81007385 354.56896973
-3.98256636 54.11268234 354.00042725
-3.39452887 54.09909058 354.10348511
-6.97846603 53.81747055 352.27288818
-6.33505917 53.74641418 353.04409790
-7.01520777 52.84611130 352.95098877
-6.35897160 53.11699677 352.84533691
-5.71794605 53.04706573 353.61560059
-9.69511795 51.77852249 356.28704834
-9.08198643 51.73867416 356.70883179
-6.34374380 52.56311035 352.80300903
-5.78693151 52.40795135 353.00289917
-5.11387300 52.48072815 353.67440796
-1.09989977 52.89524841 351.48794556
-9.09519863 51.21830750 356.33828735
-8.48282909 51.17871857 356.76208496
-1.72912610 52.29270935 350.95260620
-1.08473110 52.33715439 351.44729614
-9.16547108 50.74861526 355.30718994
-1.66112566 51.79298401 351.29873657
-8.53605938 50.16079330 355.68997192
-7.92667723 50.01213074 356.40274048
-8.05116844 49.53385925 354.85180664
-7.27767658 49.29244614 357.39938354
-0.53132039 50.75392151 350.05938721
-7.29296112 48.66176987 357.31362915
-7.88241863 48.31474686 356.41882324
-7.30453968 48.13862228 356.94482422
-6.72179794 48.12450790 357.04397583
-7.91219997 47.77165222 355.93582153
-7.28926897 47.59141922 356.90298462
-6.70654154 47.57724380 357.00305176
7.82477713 50.57489014 343.28662109
-7.93968534 47.12600708 355.77511597
-7.32794142 47.08925629 356.20315552
-6.16055012 47.06064987 356.40335083
7.20032501 49.64124298 344.42620850
-7.94120121 46.92074585 354.54010010
-5.66444349 46.58621597 355.13952637
6.62951899 49.05828476 344.62274170
-7.33911276 46.35566330 354.59603882
6.65937328 48.46088791 344.94229126
6.59565592 47.59739685 345.11932373
-5.69685268 46.00364685 350.70135498
-5.14837933 45.68721390 351.34942627
5.42795658 47.03342438 345.19317627
6.61098194 47.02589798 345.07986450
5.44335938 46.46241379 345.15380859
-3.96248126 44.90699005 349.89987183
5.45876169 45.89148331 345.11340332
-1.71098411 44.41149139 348.21319580
4.83567524 45.19164276 345.06097412
5.46639395 45.13241196 345.89416504
-3.33938456 44.45742416 347.42968750
4.84463406 44.43409729 345.84182739
5.40994740 44.85688782 343.23864746
-2.27168798 43.64182281 346.76190186
-1.65118098 43.60674286 347.21997070
1.90561628 43.71775055 346.73388672
4.84357309 43.88499069 345.44625854
5.42548800 44.28285217 343.19812012
-1.63539970 43.04161835 347.17797852
-0.98474950 43.09435272 347.68411255
1.30597866 43.00417328 347.03701782
1.90238070 42.98867035 347.15188599
4.85892963 43.31459808 345.40490723
-1.65676177 42.33541489 347.24295044
-1.03800988 42.30131149 347.70108032
0.72496194 42.45318604 346.88101196
1.34147227 42.41860962 347.34616089
4.87454557 42.74399567 345.36553955
-1.05960143 41.59616852 347.76510620
0.74065238 41.88651276 346.83990479
1.35713208 41.85243607 347.30508423
1.97214735 41.81830978 347.77227783
0.75635815 41.31983566 346.79870605
1.39268649 41.26821136 347.61529541
1.98780692 41.25262451 347.73123169
6.67950916 41.77227402 344.11294556
7.94507742 41.05706406 349.65325928
-1.05042017 40.48420334 347.33175659
0.73376083 40.61214066 346.86465454
1.37004256 40.56189728 347.68026733
1.96487319 40.54610825 347.79617310
6.65415335 41.05562973 344.18237305
7.90656567 40.32951355 349.60089111
-1.01227307 39.90223694 347.64010620
0.06321169 40.30395126 344.48226929
0.71098000 39.90493011 346.92953491
1.32719970 39.87244797 347.39483643
1.94192445 39.83992004 347.86212158
4.88989449 40.14265823 346.13186646
5.56102085 40.29291153 346.58370972
7.29102993 39.67789841 349.30984497
7.92167854 39.61220169 350.48431396
-0.99640030 39.33740616 347.59805298
0.07904058 39.73383713 344.43994141
1.34287477 39.30636597 347.35369873
2.62957191 39.53891373 347.72686768
4.34320307 39.55648041 346.67764282
4.93870640 39.54032898 346.79953003
7.31217051 38.98197937 350.15640259
7.90978336 38.85522842 351.12817383
-1.00740087 38.90196228 346.66961670
0.09494583 39.16352463 344.39758301
0.74246752 38.77173233 346.84625244
1.33850384 38.75575256 346.96212769
2.52953935 38.72371674 347.19692993
4.35881853 38.98804474 346.63742065
4.94724655 38.79951096 347.57238770
6.74573135 38.54804230 349.45538330
7.91140890 38.15965652 351.65838623
-0.98701954 38.22245407 347.16452026
1.35427070 38.18887329 346.92102051
2.54521489 38.15683746 347.15579224
3.69885969 38.15447235 346.69137573
4.93933916 38.07685471 347.99087524
6.74633503 37.99792480 349.06674194
7.31210327 37.64316177 350.79934692
7.91305065 37.61204910 351.27493286
-0.99334341 37.67121887 346.77291870
-0.33178517 37.61185455 347.93435669
1.39019001 37.60751724 347.23040771
2.00468540 37.57693100 347.69885254
2.59878421 37.56080627 347.81671143
4.32710981 37.55549622 347.12466431
6.73212004 37.22240448 349.75054932
7.32733536 37.08014679 350.76046753
-0.99974340 37.11894226 346.38024902
1.40597200 37.04092789 347.18930054
2.63328409 36.98081589 348.12622070
4.36002350 36.97388077 347.43606567
6.71038103 36.57395935 349.55059814
-0.96135259 36.53848648 346.68869019
-0.32154912 36.49559784 347.50274658
1.44192159 36.46090698 347.49978638
2.03626442 36.44475555 347.61666870
2.66789031 36.40182877 348.43582153
6.18764162 35.81003571 351.57205200
6.81417227 35.93159103 351.59478760
7.34715366 35.61350632 352.61968994
-0.96773684 35.98492050 346.29592896
-0.39343712 35.76705170 347.01989746
0.19044116 35.65016556 347.43829346
0.82407987 35.77243042 347.44799805
1.41852939 35.75616837 347.56484985
2.60483527 35.55981445 348.60614014
3.23647618 35.68186951 348.62185669
5.57640266 35.12744904 351.51052856
6.17798853 35.09864426 351.98123169
6.77801895 35.06996536 352.45294189
7.36230850 35.05322647 352.58193970
-0.41059047 35.11285782 346.93164063
0.20631447 35.08438492 347.39715576
0.80091655 35.06808853 347.51309204
1.41527319 35.03977966 347.97863770
2.62057114 34.99494934 348.56613159
3.21254969 34.97853088 348.68701172
5.61612129 34.71540833 351.02172852
6.19326544 34.53782272 351.94247437
7.37747860 34.49289703 352.54321289
-0.37258211 34.53488541 347.24023438
0.22223338 34.51856232 347.35513306
0.81675911 34.50227356 347.47100830
1.41093445 34.48585892 347.58886719
2.63626099 34.43006897 348.52508545
5.59109449 34.01564407 351.08709717
6.19327545 33.98782730 351.55984497
7.36434174 33.95434570 351.81680298
-0.37867576 33.98005676 346.84841919
0.23819831 33.95258713 347.31399536
0.83264774 33.93628693 347.42990112
1.42676187 33.91987610 347.54776001
2.02051020 33.90340042 347.66662598
2.63295984 33.87596130 348.13528442
5.60652399 33.45351791 351.04827881
6.20865917 33.42629623 351.52105713
7.37958860 33.39282227 351.77801514
-0.36268029 33.41344452 346.80627441
0.25416306 33.38656998 347.27191162
1.44265068 33.35369492 347.50668335
2.03635311 33.33721161 347.62551880
2.64875698 33.31031418 348.09521484
4.37266350 33.29189301 347.41046143
5.60590887 32.90143967 350.66357422
6.22404337 32.86468124 351.48226929
6.80969095 32.84787369 351.61129761
7.34933615 32.64212418 352.10885620
-0.34660852 32.84682465 346.76412964
0.27018908 32.82038116 347.23080444
1.43819010 32.79749298 347.11474609
2.05218077 32.77103043 347.58441162
2.64550209 32.75447464 347.70434570
4.40574360 32.71451187 347.72113037
5.04847002 32.66825867 348.89666748
5.60518694 32.34812546 350.27780151
6.20851231 32.32179260 350.75265503
-0.33049092 32.28011322 346.72204590
0.28621495 32.25417328 347.18872070
1.45415545 32.23061752 347.07357788
2.06806970 32.20463943 347.54333496
2.66134524 32.18802643 347.66421509
4.40399981 32.15689850 347.33010864
5.06414557 32.10285568 348.85757446
5.63684511 31.77571297 350.58578491
6.23939228 31.74992180 351.05966187
6.75785112 31.45160103 351.74224854
-0.31438836 31.71323967 346.68084717
0.30228683 31.68778229 347.14761353
2.02459025 31.66490364 346.44848633
2.63888645 31.63934898 346.92129517
3.80830836 31.61488724 346.81311035
4.41973639 31.58924866 347.28988647
5.07975960 31.53729820 348.81753540
6.20821285 31.21282387 349.97991943
6.78445673 31.04272079 350.90914917
0.31835875 31.12130547 347.10647583
2.04055595 31.09682465 346.40728760
3.21118355 31.07180786 346.29702759
3.82409120 31.04664421 346.77285767
4.44670916 30.85993576 348.40893555
5.05435228 30.83507156 348.88375854
5.68556833 30.95496559 348.90539551
6.22368956 30.64871788 349.94094849
0.24822965 30.58645821 345.65762329
2.03660011 30.53647041 346.01309204
3.22708845 30.50303268 346.25579834
3.83990431 30.47836876 346.73159790
4.42136383 30.15741539 348.47512817
5.02894592 30.13314056 348.95007324
6.76608133 30.09726524 348.63473511
0.30765429 30.00292206 346.32028198
3.24299359 29.93399429 346.21554565
3.83756638 29.91727829 346.33831787
5.07312489 29.45442581 350.14108276
5.65763617 29.38778114 350.53454590
6.27547836 29.35738373 351.35562134
0.28492674 29.24941254 346.65588379
3.23140335 29.27419662 346.24511719
4.45781994 28.72325134 350.34616089
5.07871294 28.69407845 351.16427612
5.66437626 28.67712212 351.29223633
6.24961138 28.66026115 351.42022705
0.30333480 28.58369446 347.15264893
3.23708224 28.80837822 345.42578125
4.47347832 28.16033745 350.30725098
5.09426546 28.13216209 351.12548828
5.67988253 28.11520576 351.25341797
6.26507187 28.09828758 351.38235474
0.31939131 28.01717949 347.11050415
0.91298705 28.00029564 347.22940063
1.42243850 28.30030251 344.30984497
3.27191687 28.23240852 345.73855591
3.90486383 27.71105003 349.60928345
4.48909140 27.59728622 350.26733398
5.10987806 27.57030296 351.08566284
5.69544935 27.55319023 351.21453857
0.33558533 27.45060539 347.06939697
1.43858814 27.72890091 344.26733398
3.26660657 27.57028389 345.88815308
3.89923024 27.05575371 349.75531006
4.50476599 27.03417778 350.22842407
5.71097088 26.99117470 351.17572021
0.30829248 26.89283562 346.32501221
0.94523782 26.86693954 347.14718628
4.50294733 26.47500992 349.84133911
5.10741568 26.45398521 350.31649780
5.71029663 26.43299675 350.79064941
0.32660830 26.23018074 346.82397461
0.92073059 26.16578102 347.21246338
2.70059609 26.25698853 346.76812744
3.32875252 26.13769341 348.13171387
3.91598630 26.02612305 348.79388428
4.51868343 25.91119576 349.80236816
5.12310505 25.89073181 350.27661133
5.70962286 25.87362671 350.40548706
2.73600841 25.68570137 347.07821655
3.30205512 25.39038086 348.46673584
3.91021514 25.37033653 348.93988037
4.51686525 25.35023499 349.41513062
5.12183666 25.33022308 349.89035034
5.72525167 25.31021500 350.36657715
1.03577924 25.16062355 347.72317505
2.73266506 25.12077522 346.68673706
3.31794405 24.82484055 348.42669678
3.90784836 24.80772400 348.55157471
4.51494026 24.78824425 349.02679443
5.12056828 24.76860619 349.50405884
5.69872856 24.61332893 350.43212891
0.99684590 24.50852203 347.28671265
2.74528766 24.36825562 347.72430420
3.33389330 24.25925255 348.38562012
3.92370629 24.24208069 348.51153564
4.51309252 24.22494888 348.63839722
5.13631916 24.20405769 349.46405029
5.72375250 24.18690872 349.59399414
0.94459158 23.76505852 347.15338135
2.12897682 23.73077774 347.39706421
2.74017310 23.71210670 347.87130737
3.34979725 23.69351196 348.34552002
3.93954945 23.67634201 348.47143555
4.52892017 23.65924072 348.59936523
5.11787939 23.64203835 348.72726440
5.72295713 23.62362862 349.20559692
0.93940228 23.19920731 346.76187134
2.14506435 23.16384506 347.35693359
2.75615335 23.14573479 347.83016968
3.36574721 23.12767220 348.30548096
3.95546865 23.11059380 348.43136597
5.70907784 22.99217033 349.04357910
0.97701031 22.63131142 347.07107544
2.16115165 22.59696579 347.31576538
2.77219486 22.57929420 347.79006958
3.33977437 22.42893219 348.37194824
3.98958206 22.54425049 348.74069214
5.13329077 22.24406624 350.25109863
5.70459318 22.49372864 348.07705688
0.99314326 22.06439781 347.02893066
2.17730021 22.02989006 347.27462769
2.80775762 22.01296234 348.09942627
3.93974161 21.71417999 349.26031494
4.56290483 21.69776344 350.08325195
0.98939246 21.36570358 347.44479370
1.56006813 21.21703339 348.02270508
3.39070630 21.29827118 348.63931274
3.99225998 21.15146637 349.91534424
4.57867098 21.13431740 350.04330444
5.16471577 21.11704826 350.17321777
0.96424335 20.66732979 347.51028442
2.77574396 20.61807251 348.57894897
3.40250731 20.60367393 349.40090942
4.00811768 20.58791161 349.87542725
4.59448290 20.57061195 350.00436401
5.18042135 20.55343056 350.13427734
0.98045224 20.10112000 347.46817017
1.59239447 20.08557701 347.94055176
2.79175448 20.05282402 348.53894043
3.41845655 20.03942490 349.36099243
4.02403641 20.02420998 349.83642578
4.61032534 20.00690079 349.96539307
0.38334623 19.54970360 346.95562744
0.99670726 19.53474045 347.42706299
1.60855794 19.51973915 347.90045166
2.19856906 19.50239563 348.02435303
2.80787206 19.48748970 348.49887085
3.41549587 19.47266197 348.97335815
1.01299286 18.96827126 347.38589478
1.62479746 18.95375824 347.85943604
2.21470213 18.93641090 347.98327637
2.82391286 18.92210388 348.45782471
3.45041585 18.91083908 349.28100586
1.02926302 18.40169144 347.34478760
1.64099133 18.38778305 347.81832886
2.83998466 18.35656548 348.41778564
3.40510535 18.21212959 348.99899292
3.94986725 18.06388283 349.23364258
4.58501625 18.11762810 349.83023071
1.04557920 17.83502007 347.30364990
1.65720046 17.82170868 347.77725220
2.83653688 17.78686142 348.02896118
4.57046509 17.48624229 349.67025757
1.04037666 17.26378059 346.91183472
1.67350137 17.25547028 347.73709106
2.85262394 17.22068214 347.98788452
3.44165921 17.20327377 348.11578369
4.56829929 16.91722107 349.28353882
1.03612006 16.57146645 347.32809448
1.64742517 16.51933861 348.06976318
3.45774627 16.63703918 348.07565308
4.02179861 16.49458885 348.66006470
1.03192353 15.88077641 347.74249268
1.62153816 15.86316299 347.86737061
3.97610760 15.79314327 348.37692261
1.63777769 15.29718971 347.82626343
3.45167637 15.49173546 347.29473877
1.04294610 14.74189758 347.31045532
1.71005642 14.82649708 348.18011475
3.44403148 14.80136776 347.71121216
1.03763819 14.16773701 346.92047119
1.69130135 14.17235374 348.09396362
3.41683722 14.10480976 347.77780151
1.70761716 13.60667801 348.05285645
1.72390246 13.04100227 348.01181030
1.76103306 12.48410130 348.31970215
1.73477530 11.81267834 348.22451782
1.68712413 11.08783054 348.10229492
1.70348573 10.52225590 348.06124878
1.71974063 9.95652008 348.02114868
1.75711417 9.40264893 348.32824707
1.77349102 8.83731174 348.28814697
1.74767661 8.24609280 347.54965210
1.74273694 7.66602802 347.15927124
1.74688554 6.94538879 348.15087891
1.75200403 6.32442045 348.33697510
-3.82810950 4.82301855 358.80526733
-3.17667103 5.04495335 358.73074341
-0.34285453 4.92832899 359.30664063
0.30198917 5.07339525 359.70938110
0.86955541 5.05581808 359.83746338
1.31074774 4.76579428 359.50857544
-0.94699228 4.28969097 358.95812988
-3.74721432 2.73755741 358.22091675
-3.17678022 2.71935058 358.34295654
-1.46758342 2.66518736 358.71517944
-0.33010134 2.62966752 358.96841431
0.23851797 2.61165905 359.09652710
0.82782245 2.61200190 359.55215454
1.45827866 2.73136377 359.91241455
-18.29103661 136.24203491 359.62615967
-16.59874725 135.60012817 360.29333496
-15.82023144 135.27798462 360.20184326
-17.30940437 134.86436462 360.48480225
-15.50258541 134.45072937 360.45690918
-13.05574036 133.49690247 361.03347778
-18.73433685 134.73046875 360.02603149
-16.99007797 134.03713989 360.73953247
-15.45366478 133.72514343 360.48553467
-12.21358299 132.47795105 361.73532104
-18.34115791 133.92236328 360.33264160
-16.67072296 133.21089172 360.99432373
-16.20120430 133.24073792 360.60379028
-15.13556099 132.90078735 360.74166870
-13.21950531 132.09611511 361.62673950
-12.16497040 131.75927734 361.76467896
-18.34959412 133.36419678 360.28729248
-17.22045898 132.85488892 360.49707031
-15.94045830 132.58491516 360.78460693
-14.55276012 131.97915649 361.22009277
-12.90625668 131.27803040 361.87973022
-12.43639946 131.30537415 361.49722290
-11.43949795 131.13687134 361.56304932
-20.94921303 132.68544006 362.77209473
-17.22892761 132.29869080 360.45181274
-16.21911812 132.12933350 360.51296997
-14.16672516 131.18228149 361.52481079
-13.30517101 130.96827698 361.48794556
-12.44416618 130.75306702 361.45300293
-11.71049881 130.68298340 361.29510498
-22.64150620 132.83074951 362.08239746
-20.90020180 131.96092224 362.79919434
-20.16147041 131.89376831 362.62490845
-19.37198257 131.90562439 362.47744751
-16.36815262 131.52648926 360.36749268
-15.49945831 131.31040955 360.33035278
-13.71728611 130.46572876 361.12017822
-12.45193481 130.20181274 361.40881348
-11.71826553 130.13070679 361.25085449
-20.91025734 131.40379333 362.75262451
-20.17140388 131.33764648 362.57833862
-19.64690781 131.20144653 362.25573730
-18.79856873 131.04483032 362.18353271
-15.38016415 130.60998535 360.41049194
-13.72581768 129.91250610 361.07528687
-12.72418594 129.74594116 361.14065552
-11.66937828 129.41195679 361.28146362
-10.93519020 129.34169006 361.12582397
-10.67745876 130.19071960 358.17907715
-24.03056526 130.91389465 364.82083130
-23.02036476 130.75299072 364.85784912
-21.77233315 131.22590637 361.99743652
-19.13124847 130.50802612 361.88824463
-14.26657867 129.55120850 360.58142090
-12.99716854 129.28915405 360.87173462
-11.88338661 128.78857422 361.08920288
-11.41178894 128.81474304 360.70916748
-10.93960953 128.83984375 360.32989502
-10.30678654 129.20153809 358.51721191
-23.52107048 130.22419739 364.44271851
-21.75302315 130.58409119 361.98776245
-21.01136208 130.51792908 361.81344604
-18.67261124 129.98100281 361.44778442
-14.00781822 128.90043640 360.76174927
-13.27027321 128.83137512 360.60278320
-11.41955662 128.26246643 360.66485596
-10.52566910 128.52665710 359.07821655
-10.05016327 128.55058289 358.70114136
-27.73844719 130.74600220 364.81326294
-26.98572731 130.87442017 364.60144043
-26.07466316 130.55752563 364.58404541
-25.12521935 130.12796021 364.61663818
-22.98226547 129.47550964 364.83679199
-21.29594421 130.05735779 361.54174805
-20.60570908 129.91098022 361.34405518
-19.91611671 129.76448059 361.14709473
-19.22579193 129.61791992 360.95208740
-18.27078056 129.62226868 360.93423462
-13.15153027 128.13490295 360.68380737
-12.48368740 128.04139709 360.47698975
-11.69040298 127.80461121 360.39663696
-10.53270340 127.97234344 359.03445435
-9.79494286 127.90171051 358.88378906
-29.11356163 130.61138916 364.43948364
-27.47013474 130.08956909 364.98635864
-26.39388466 129.76470947 365.09017944
-25.59633446 129.53598022 364.97595215
-23.80522346 129.39912415 364.10321045
-22.42401886 128.98852539 364.46194458
-19.23502350 129.06076050 360.90618896
-18.76559639 129.08987427 360.51144409
-18.29555893 129.11891174 360.11743164
-16.00964165 128.74687195 359.70153809
-14.94165039 128.41369629 359.84320068
-12.43452454 127.32058716 360.50854492
-11.96207333 127.34578705 360.12759399
-11.01466465 127.39501953 359.36874390
-10.53967762 127.41900635 358.99084473
-9.80185699 127.34842682 358.84005737
-28.50131226 129.68908691 364.90786743
-27.42176628 129.36419678 365.01116943
-26.34481239 129.04023743 365.11584473
-25.60712433 128.97990417 364.92880249
-23.55337524 128.55596924 364.30114746
-23.09051323 128.58860779 363.89904785
-22.07888031 128.43045044 363.94058228
-21.61479568 128.46191406 363.54135132
-21.31504631 128.94010925 361.44891357
-20.84732819 128.97148132 361.05029297
-19.71298027 128.47241211 361.25555420
-18.97220421 128.40702820 361.08502197
-18.10567284 128.68637085 359.45150757
-16.75974274 128.25753784 359.81921387
-15.69022655 127.92546844 359.95941162
-14.78330326 127.60253143 359.97576904
-11.96974945 126.79254150 360.08322144
-11.49604511 126.81665802 359.70367432
-10.54735374 126.86475372 358.94631958
-9.75205135 126.62648010 358.87377930
-28.51356506 129.13014221 364.85913086
-27.37351799 128.63977051 365.03628540
-26.35633278 128.48323059 365.06796265
-25.61855316 128.42286682 364.88076782
-25.15813255 128.45678711 364.47418213
-23.83978462 128.09524536 364.03274536
-23.04159355 127.86504364 363.92642212
-22.57882118 127.89766693 363.52435303
-21.56590652 127.73935699 363.56878662
-21.06332016 128.09359741 361.65249634
-20.19099617 127.88514709 361.60507202
-19.72294426 127.91533661 361.20886230
-19.25342560 127.94445038 360.81402588
-16.44050980 127.43721008 360.07595825
-14.84240532 126.96611023 359.90634155
-14.10104656 126.89795685 359.74798584
-13.30416107 126.66219330 359.66677856
-12.50699806 126.42527771 359.58816528
-11.76808167 126.35691833 359.43353271
-11.08201027 126.49764252 358.44866943
-27.81126404 128.12841797 364.66979980
-26.58575058 127.85408020 364.87384033
-25.95996094 127.88101959 364.58834839
-25.10948753 127.73235321 364.50018311
-24.58847427 127.59977722 364.16860962
-23.84975052 127.53814697 363.98611450
-21.51781082 127.01786804 363.59567261
-21.05308533 127.04821777 363.19729614
-20.58783913 127.07855988 362.79968262
-20.12119102 127.10874939 362.40350342
-19.65451050 127.13896179 362.00735474
-19.26259422 127.38629913 360.76797485
-18.79246712 127.41533661 360.37390137
-18.04976654 127.34969330 360.20709229
-16.44891739 126.87999725 360.03057861
-15.64864540 126.64541626 359.94607544
-14.85011196 126.40984344 359.86181641
-14.10951519 126.34174347 359.70269775
-13.63569069 126.36810303 359.31903076
-12.51473522 125.87100983 359.54373169
-11.77569675 125.80264282 359.38906860
-11.08968639 125.94238281 358.40414429
-25.15382957 127.23050690 363.67791748
-24.69075203 127.26334381 363.27258301
-23.95004463 127.20162201 363.09094238
-23.20939255 127.13881683 362.91076660
-22.74430084 127.17140198 362.50915527
-21.00410461 126.32559967 363.22601318
-20.53818703 126.35585022 362.82916260
-20.07233238 126.38511658 362.43234253
-19.33296013 126.32182312 362.26055908
-18.74278259 126.68959045 360.40457153
-18.33083344 126.88519287 359.93438721
-17.80002022 126.74546814 359.61947632
-17.12751007 126.65434265 359.40521240
-15.59938908 125.92165375 359.97732544
-14.85858059 125.85362244 359.81655884
-14.11722183 125.78648376 359.65814209
-13.64333534 125.81182861 359.27435303
-11.78266907 125.24732208 359.34527588
-11.03948402 125.22035980 358.43884277
-10.36834431 125.12538910 358.23852539
-25.44316864 126.76690674 363.40786743
-24.70145035 126.70526886 363.22521973
-23.96061897 126.64356995 363.04348755
-23.16010857 126.41422272 362.93908691
-22.69513893 126.44577026 362.53747559
-20.48929977 125.63323212 362.85803223
-20.02277184 125.66242981 362.46194458
-19.28413391 125.59916687 362.28948975
-18.61867142 125.74868774 361.27896118
-18.29553604 126.20712280 359.19549561
-17.00668907 125.95285797 359.48669434
-15.60715580 125.36437225 359.93264771
-15.13440037 125.39096832 359.54580688
-14.18653584 125.44188690 358.77517700
-13.27829933 125.11849213 358.79873657
-11.46555138 124.47437286 358.85134888
-10.98928261 124.49736786 358.47348022
-10.24902058 124.42872620 358.32324219
-8.98501301 124.17582703 358.62823486
-27.46875763 127.06336975 362.46246338
-25.45386505 126.20784760 363.36044312
-24.71214676 126.14618683 363.17773438
-23.97061348 126.08442688 362.99670410
-23.11091423 125.68959808 362.96749878
-22.37059784 125.62770081 362.78900146
-21.62967110 125.56565094 362.61291504
-20.03267670 125.10632324 362.41531372
-19.29333496 125.04302216 362.24353027
-17.83124733 125.67481995 358.75750732
-16.48357773 125.25370789 359.12966919
-15.41192722 124.92637634 359.27383423
-10.25605392 123.87338257 358.27944946
-8.99119377 123.62246704 358.58520508
-27.16793442 126.32395172 362.67654419
-25.46468163 125.64877319 363.31304932
-24.72284317 125.58714294 363.13031006
-23.98121834 125.52639008 362.94927979
-23.12090683 125.13149261 362.92074585
-22.38056183 125.07060242 362.74237061
-21.63957596 125.00755310 362.56616211
-20.84095573 124.77892303 362.46658325
-20.04190636 124.55016327 362.36944580
-19.30247498 124.48684692 362.19757080
-18.56328583 124.42343140 362.02734375
-18.11271286 125.20838928 358.48361206
-16.43386459 124.52784729 359.16183472
-15.68936253 124.46077728 359.00167847
-14.67650414 124.30194855 359.07040405
-14.20188618 124.32737732 358.68579102
-12.06798458 123.71370697 358.23031616
-10.26296711 123.31907654 358.23562622
-9.20324612 122.99299622 358.39343262
-8.40808105 122.75746918 358.32550049
-26.89733315 125.66829681 362.85308838
-26.03339386 125.27471161 362.81961060
-24.73344612 125.02808380 363.08276367
-23.93205452 124.80177307 362.97763062
-23.13154221 124.57343292 362.87326050
-22.39043427 124.51245880 362.69561768
-21.64947701 124.45041656 362.51947021
-20.85012627 124.22277069 362.42059326
-20.05110931 123.99397278 362.32345581
-19.31167603 123.93068695 362.15167236
-18.57166481 123.86723328 361.98205566
-16.44233322 123.96962738 359.11645508
-15.10037136 123.55357361 359.48904419
-14.62648582 123.57803345 359.10369873
-14.15195847 123.60247040 358.71911621
-13.67681980 123.62683105 358.33535767
-11.54072189 123.01274109 357.88619995
-10.26984978 122.76377869 358.19168091
-25.76456261 124.62212372 362.99533081
-25.40604782 124.49253082 362.54211426
-24.43708611 124.26007843 362.56030273
-23.41816330 124.10679626 362.60324097
-22.61637115 123.87924957 362.50198364
-21.81570625 123.65165710 362.40191650
-20.80138779 123.49913025 362.44955444
-20.06094933 123.43686676 362.27676392
-19.53413391 123.29936981 361.95889282
-17.72546768 122.91747284 361.91992188
-16.17969513 123.31974792 359.29855347
-15.05105495 122.82969666 359.52169800
-13.35911465 122.81217194 358.59695435
-11.54766369 122.45642853 357.84228516
-10.27679253 122.20847321 358.14785767
-9.47938538 121.97393799 358.07910156
-8.45897675 121.76055908 358.18627930
-23.70472336 123.63918304 362.33306885
-23.23816681 123.66973877 361.93136597
-19.48442268 122.57660675 361.98980713
-18.27547073 122.54116058 361.42724609
-16.18737030 122.76146698 359.25375366
-15.05872917 122.27243042 359.47698975
-14.58490372 122.29689026 359.09164429
-14.10970497 122.32127380 358.70782471
-13.63392544 122.34558105 358.32485962
-11.82143784 121.98988342 357.56918335
-10.81260586 121.83248138 357.64791870
-9.42893982 121.25286865 358.11508179
-8.68927193 121.18499756 357.96838379
-20.54640007 122.29537964 362.58016968
-18.01301956 121.89549255 361.60562134
-15.86771393 121.94696808 359.51339722
-15.06713676 121.71623230 359.43164063
-14.59254932 121.74064636 359.04708862
-14.11741066 121.76402283 358.66314697
-13.64166164 121.78730774 358.28015137
-10.81951809 121.27616882 357.60391235
-10.07632637 121.20832062 357.45648193
-8.95735455 120.71922302 357.69808960
-8.47897816 120.73988342 357.32504272
-20.93510246 121.46273041 363.04415894
-19.95234871 121.39594269 363.05447388
-19.50346565 121.46333313 361.89712524
-18.49103928 121.31242371 361.95114136
-18.02206802 121.33934021 361.55950928
-17.55178261 121.36514282 361.16937256
-15.34402275 121.24858093 359.16021729
-14.60016346 121.18337250 359.00234985
-14.12496281 121.20674896 358.61843872
-13.64921379 121.23005676 358.23541260
-13.17212200 121.25325775 357.85385132
-11.35706902 120.89727783 357.10260010
-10.22123814 120.60028839 357.31353760
-9.49041939 120.34021759 357.19793701
-8.48593616 120.18456268 357.28118896
-20.91539574 120.82379913 363.03585815
-19.90373421 120.67627716 363.08374023
-19.43677902 120.70334625 362.68991089
-18.96918106 120.73037720 362.29681396
-18.50011826 120.75727844 361.90515137
-18.03111649 120.78318787 361.51351929
-17.56080246 120.80898285 361.12329102
-14.87735367 120.71482086 358.72970581
-14.13257694 120.64949036 358.57373047
-13.17964458 120.69600677 357.80902100
-11.36398125 120.33997345 357.05853271
-9.76089764 119.87256622 356.92565918
-8.75435352 119.71687317 357.00964355
-20.18541145 120.20848846 362.81570435
-19.44585800 120.14720154 362.64389038
-18.97816849 120.17420197 362.25076294
-18.50913811 120.20111084 361.85910034
-17.67185020 120.09021759 361.03228760
-15.89944172 120.30941010 358.61590576
-14.88499737 120.15657043 358.68487549
-14.14013004 120.09223175 358.52886963
-11.37080193 119.78266907 357.01443481
-9.02431202 119.24925232 356.73687744
-24.61189079 121.77026367 359.78106689
-20.19455147 119.65234375 362.76971436
-17.73260117 119.45278931 360.96310425
-15.70170784 119.86239624 357.95663452
-14.68546295 119.70938873 358.02807617
-13.28858662 119.13807678 358.48818970
-13.19401741 119.57946014 357.71994019
-10.36067295 119.09925079 356.29815674
-9.29356670 118.77858734 356.46456909
-24.50069618 120.87168121 359.89114380
-23.47194672 120.72277832 359.94302368
-20.00838470 119.20964813 362.10684204
-19.53987122 119.23570251 361.71276855
-17.47024155 118.81011963 361.14181519
-14.90501976 119.07206726 357.83477783
-13.29623127 118.58084869 358.44345093
-12.28648663 118.43073273 358.51739502
-9.30041885 118.22226715 356.42053223
-24.23134613 120.21987152 360.07058716
-23.15043640 120.15315247 360.14657593
-20.01743507 118.65248108 362.06069946
-19.49009895 118.51384735 361.74508667
-18.49171829 118.40006256 361.03851318
-18.02075958 118.42488861 360.64755249
-17.00702286 118.27861023 360.70779419
-14.04755306 118.08798218 358.55346680
-13.30375385 118.02456665 358.39865112
-12.29327679 117.87442780 358.47329712
-11.17712212 118.21642303 356.27542114
-10.79857445 118.62364197 354.21765137
-24.52183914 119.74559021 359.79541016
-23.21277046 119.50984192 360.07577515
-22.23929024 119.28057098 360.10671997
-19.24346161 117.90345001 361.16018677
-18.50003242 117.84284210 360.99304199
-18.02907753 117.86769867 360.60211182
-17.55677986 117.89244843 360.21267700
-16.81383705 117.83159637 360.04888916
-13.18330097 117.32888794 358.48370361
-12.50917053 117.23796082 358.28207397
-11.76598263 117.17437744 358.13067627
-11.12667561 117.49124908 356.31246948
-9.57652378 117.19331360 356.10409546
-10.41064739 117.83571625 354.53964233
-24.11816788 118.95432281 360.10400391
-23.38098145 118.70200348 359.95956421
-22.35400009 118.55596924 360.01339722
-21.94229698 118.74900055 359.53613281
-18.78106689 117.37017059 360.72259521
-18.03736115 117.31050110 360.55661011
-17.56573486 117.33426666 360.16635132
-17.03412437 117.19316864 359.85766602
-16.34817505 117.29795837 359.61651611
-13.85398197 117.08036041 357.85430908
-12.45887947 116.51587677 358.31811523
-11.71642208 116.45233154 358.16601563
-10.16233826 116.99611664 354.76147461
-25.10221672 118.79196930 359.24545288
-23.66985703 118.22561646 359.68533325
-22.64153481 118.08056641 359.73937988
-21.89239883 118.02117920 359.56790161
-21.14356804 117.96067047 359.39807129
-17.84524345 116.86161804 359.89575195
-16.57658005 116.68654633 358.66494751
-13.59317970 116.43742371 358.03744507
-12.46646214 115.95961761 358.27340698
-11.98848438 115.98061371 357.89511108
-11.24508095 115.91694641 357.74487305
-10.16924858 116.43582153 354.71722412
-23.40059853 117.57678223 359.86517334
-22.65125084 117.51847839 359.69213867
-21.84213448 117.29326630 359.60070801
-21.36940956 117.31846619 359.20379639
-20.89607430 117.34459686 358.80770874
-20.42216110 117.36969757 358.41223145
-17.85420036 116.30345154 359.84948730
-17.10863304 116.24253082 359.68719482
-15.61957359 116.12042999 359.36633301
-13.86899471 115.96288300 357.76437378
-13.03667068 115.65254974 357.73327637
-11.99603653 115.42336273 357.85025024
-11.25190163 115.36064148 357.70077515
-10.17533493 115.87645721 354.67364502
-9.15991211 115.72625732 354.76473999
-7.60737753 115.42748260 354.56954956
-24.24901199 117.27098083 359.13549805
-23.21733284 117.12683868 359.19039917
-21.79119682 116.56532288 359.63424683
-21.31865692 116.59049988 359.23742676
-20.84547424 116.61663055 358.84149170
-20.37158966 116.64172363 358.44616699
-19.89633179 116.66671753 358.05233765
-17.80291557 115.79779816 359.09091187
-17.06801414 115.54453278 358.96157837
-16.05146980 115.40087128 359.02761841
-15.63432980 115.58815765 358.56161499
-14.14487171 115.48829651 357.49142456
-13.28199100 115.09499359 357.50195313
-12.53587246 115.03237915 357.35037231
-11.52356720 114.88696289 357.42929077
-11.04445744 114.90583801 357.05255127
-9.16596889 115.16692352 354.72109985
-8.36062527 114.93557739 354.66448975
-7.29325914 114.62030792 354.84100342
-23.78658867 116.73339081 358.68615723
-22.97322655 116.50805664 358.59609985
-21.88248062 116.19789886 358.73486328
-20.85440063 116.05449677 358.79489136
-20.38048363 116.07859039 358.39953613
-19.57099724 115.85395050 358.31491089
-18.82036781 115.79302979 358.15179443
-17.07629967 114.98533630 358.91595459
-16.33057976 114.92530823 358.75509644
-15.58360863 114.86508179 358.59716797
-14.21210098 115.11681366 356.60580444
-11.79684925 114.41237640 357.15655518
-11.05121708 114.34853363 357.00833130
-10.40485477 114.65422058 355.19223022
-9.11512375 114.44161987 354.76062012
-8.36666775 114.37724304 354.62091064
-7.29861450 114.06289673 354.79818726
-6.55131674 113.99729156 354.66253662
0.56691116 111.89833832 355.71093750
-22.98199844 115.94393158 358.54916382
-21.89152527 115.63477325 358.68823242
-21.14080238 115.57617950 358.51956177
-20.38950157 115.51645660 358.35296631
-18.76952171 115.06596375 358.18688965
-18.29340744 115.08875275 357.79629517
-16.60901833 114.44870758 358.48306274
-16.07368469 114.30628204 358.17904663
-15.43613720 114.32755280 357.91836548
-13.46984100 114.49388123 356.40982056
-12.33808708 114.01856232 356.65368652
-11.59004593 113.95570374 356.50598145
-8.79934216 113.63440704 355.03186035
-8.05143547 113.56999969 354.89276123
-7.30459547 113.50554657 354.75469971
-6.55729723 113.43994141 354.61895752
-0.99085122 111.81572723 355.02526855
0.61663800 111.18491364 355.75250244
-21.14972878 115.01303101 358.47290039
-20.39775276 114.95426941 358.30706787
-19.92240334 114.97824860 357.91308594
-18.77780533 114.50377655 358.14105225
-18.30163002 114.52754974 357.75045776
-15.33444786 113.68580627 357.97637939
-14.85683632 113.70712280 357.59271240
-13.34920406 113.79711914 356.49600220
-12.61219215 113.54100800 356.38015747
-11.86375523 113.47915649 356.23202515
-11.11555958 113.41620636 356.08563232
-10.68397999 113.61744690 354.87255859
-9.39266205 113.40585327 354.44085693
-8.05747604 113.01167297 354.84915161
-7.51600170 112.86299896 354.56414795
-6.66239166 112.71679688 354.53305054
-1.73482490 111.32830048 355.11111450
-0.87395537 111.12773132 355.11596680
0.61199766 110.63446808 355.71090698
1.34864748 110.56819153 355.58746338
-24.00732040 114.92880249 359.17434692
-23.53481293 114.95525360 358.77337646
-22.78195381 114.89678192 358.60247803
-22.02927971 114.83921051 358.43322754
-20.34681702 114.22522736 358.34194946
-19.81191254 114.08429718 358.02993774
-18.78605843 113.94258118 358.09521484
-18.03634071 113.88259888 357.93313599
-13.09992123 112.96174622 356.71438599
-12.61892033 112.98171997 356.33575439
-12.13813400 113.00068665 355.95727539
-11.05857754 112.70738983 355.37097168
-10.47420597 112.89189148 355.03890991
-9.07633114 112.59860229 354.71292114
-6.98029375 112.15590668 354.23672485
-1.73944938 110.77584839 355.06939697
0.60808992 110.08394623 355.67001343
1.59572685 109.94117737 355.77420044
-23.95668983 114.19883728 359.20806885
-22.86618805 113.89392090 359.34313965
-21.83752823 113.75472260 359.39999390
-21.50369453 114.13437653 358.07055664
-19.82092667 113.52115631 357.98327637
-19.06971550 113.46222687 357.81979370
-18.31801605 113.40318298 357.65859985
-14.60410309 112.52467346 356.97378540
-14.18275261 112.70983887 356.50900269
-13.37524605 112.48322296 356.44052124
-12.62641144 112.42249298 356.29071045
-12.14483166 112.44140625 355.91290283
-10.58158779 112.16578674 354.95227051
-9.83180428 112.10256958 354.80993652
-9.08235645 112.03925323 354.66925049
-8.59702110 112.05668640 354.29891968
-7.24873829 111.67839813 353.96170044
-2.00069237 110.30108643 354.79727173
-1.00393069 110.15831757 354.90069580
0.60349542 109.53349304 355.62835693
1.54408562 109.30918884 355.71322632
-23.62656593 113.38816071 359.46868896
-22.59717560 113.24907684 359.52346802
-21.84715652 113.19261169 359.35269165
-21.37312126 113.21671295 358.95712280
-20.89902115 113.24182129 358.56164551
-19.82914925 112.95896912 357.93740845
-18.80317497 112.81828308 358.00262451
-18.32617569 112.84100342 357.61257935
-14.13172436 111.98461914 356.54687500
-13.38264561 111.92398071 356.39544678
-12.30755043 111.61843872 356.55902100
-11.88387775 111.80130005 356.09884644
-10.58761406 111.60645294 354.90863037
-8.66575241 110.89601898 355.85589600
-8.23904037 111.07643127 355.40249634
-7.25479460 111.11905670 353.91806030
-2.26132417 109.82530975 354.52575684
-1.02053106 109.41338348 354.89462280
-23.50287628 112.68756866 359.55151367
-22.54669762 112.52208710 359.55746460
-21.79600716 112.46559906 359.38751221
-21.26357460 112.32489014 359.07226563
-20.31391144 112.37288666 358.28381348
-19.56285477 112.31507111 358.11914063
-18.81130600 112.25708771 357.95672607
-18.33436966 112.27881622 357.56661987
-13.68397713 111.02957153 357.69952393
-12.80988407 110.83450317 357.67837524
-11.93649483 110.63928986 357.65936279
-11.45744705 110.65715790 357.28256226
-11.07812023 111.02845001 355.23864746
-10.32849026 110.96633148 355.09503174
-8.67177963 110.33869171 355.81237793
-7.92489433 110.27632141 355.67297363
-7.17984152 110.21394348 355.53402710
-1.15878880 108.80299377 354.75622559
0.59577107 108.43347168 355.54656982
2.46872211 108.16558838 354.91708374
-22.49625015 111.79514313 359.59158325
-21.74559021 111.73861694 359.42163086
-20.99599838 111.68306732 359.25280762
-19.84699821 111.83270264 357.84399414
-18.81937790 111.69490814 357.91064453
-18.41359138 111.90001678 356.67129517
-14.56610870 110.66532135 357.67761230
-13.43558025 110.20030975 357.91622925
-12.42233181 110.06311035 357.99191284
-11.94316292 110.08200073 357.61511230
-11.46411514 110.09987640 357.23828125
-10.98302174 110.11759186 356.86373901
-8.41375637 109.70259094 355.99877930
-7.93089104 109.71896362 355.62945557
-7.12883043 109.49355316 355.57516479
-1.16342795 108.24954987 354.71438599
0.50409782 107.73274231 355.46859741
1.43611705 107.49474335 355.54980469
2.65786505 107.44139862 355.08016968
-22.78338432 111.31168365 359.31805420
-21.75518608 111.17653656 359.37432861
-21.00486183 111.12091064 359.20608521
-20.19574356 110.90033722 359.12072754
-19.85515976 111.26952362 357.79794312
-19.31893921 111.12740326 357.48876953
-18.84120750 111.14916992 357.09793091
-18.19917870 111.17259216 356.83416748
-13.44224834 109.64202881 357.87188721
-12.69664955 109.58345795 357.71984863
-11.95059395 109.52477264 357.57012939
-11.47078228 109.54257965 357.19400024
-10.93257523 109.39734650 356.90264893
-10.50871754 109.57803345 356.44497681
-10.02646446 109.59564209 356.07202148
-9.16651440 109.20755005 356.09591675
-8.41975307 109.14626312 355.95529175
-6.44470549 109.03862762 355.31176758
-1.42303741 107.77272034 354.44329834
0.69488907 107.00755310 355.63150024
1.43222451 106.94422150 355.50888062
1.91765833 106.95535278 355.15942383
2.90447068 106.81735992 355.26766968
3.63931990 106.75282288 355.14895630
-22.09395981 110.61067200 359.08023071
-21.01442719 110.55883026 359.15869141
-18.78981590 110.42098236 357.13519287
-18.03738213 110.36386108 356.97488403
-14.25561905 109.31674957 357.14370728
-12.97020340 109.10278320 357.44839478
-10.88231182 108.67607117 356.94155884
-9.97629356 108.87335205 356.11108398
-9.17244816 108.65019226 356.05230713
-8.42565632 108.58891296 355.91168213
-0.66250837 106.99337006 355.08953857
0.69104236 106.45702362 355.59054565
1.42842317 106.39470673 355.46798706
2.21792889 106.16934204 355.43078613
2.95389175 106.10585022 355.31106567
3.68874049 106.04329681 355.19253540
-21.51643181 109.98911285 358.74063110
-21.04162979 110.01216888 358.34567261
-18.79861641 109.85784912 357.08847046
-18.04560471 109.80068207 356.92880249
-13.99329376 108.67981720 357.32723999
-13.24531460 108.62119293 357.17556763
-9.92551041 108.15203857 356.15097046
-9.05337048 107.95832062 356.14041138
-8.37531757 107.86855316 355.95202637
-7.89179611 107.88488770 355.58349609
-7.08981228 107.66043854 355.52938843
-6.34422541 107.59989929 355.39291382
0.06040780 106.18717194 354.96023560
1.42385924 105.84423828 355.42630005
2.51767969 105.38536072 355.70141602
3.00326633 105.39631653 355.35467529
3.73805475 105.33278656 355.23608398
-20.71407127 109.20733643 358.60931396
-20.23829269 109.22926331 358.21621704
-19.43425369 109.25675964 358.07351685
-18.80680847 109.29467010 357.04244995
-18.05364418 109.23750305 356.88272095
-17.36817932 109.35748291 355.87689209
-13.52127934 108.13964081 356.90209961
-12.44716358 107.84121704 357.06436157
-11.76946545 107.75395203 356.86795044
-10.89570808 107.56149292 356.85305786
-9.93214703 107.59474945 356.10662842
-9.44885635 107.61125946 355.73538208
-8.32494736 107.14919281 355.99249268
-7.84151745 107.16452026 355.62396240
-7.09571743 107.10410309 355.48583984
-0.07575888 105.57660675 354.82400513
1.16792774 105.36727142 355.15710449
2.51380157 104.83685303 355.66064453
2.99938869 104.84681702 355.31381226
3.73492455 104.78421783 355.19595337
-19.84582329 108.86547089 356.92700195
-18.81490707 108.73148346 356.99627686
-18.06177330 108.67431641 356.83657837
-17.37548447 108.79326630 355.83135986
-12.93116093 107.27021790 356.64779663
