2.39050269 23.94384766 341.96908569
1.71444905 24.04125214 342.66235352
3.34304881 23.86680984 344.84454346
3.24038649 23.89446449 348.44958496
2.68835330 23.31283379 344.89685059
2.92575121 23.33468437 348.46939087
0.98474646 22.98640633 350.24075317
1.77823353 22.92102623 342.65286255
3.30147529 22.76534462 348.43893433
1.35739911 22.41920090 350.21176147
2.57693315 22.17730713 342.50964355
3.33205795 22.20068550 348.43359375
1.38680077 21.85710526 350.20632935
0.92508370 21.82601357 350.81555176
2.31031346 21.53581810 342.49719238
3.70488644 21.65852547 346.02175903
3.82225013 21.66709137 347.81228638
3.01545143 21.64221191 348.45367432
2.44719005 21.48377037 349.02276611
1.41629469 21.29480171 350.20086670
0.95350802 21.26428223 350.81002808
2.92369413 21.10033226 344.28707886
3.28283191 20.97366142 346.00048828
2.36934781 20.79287338 348.97265625
2.11709905 20.59910965 351.88684082
2.86897302 20.53381348 343.09326172
3.42479396 20.44750023 345.40509033
3.31435871 20.40974045 345.99539185
3.41785622 20.62585258 346.67370605
3.88453269 20.53630829 347.80184937
3.76906204 20.49872589 348.39254761
3.45633650 19.88347435 345.40011597
3.34585571 19.84580803 345.99041748
3.23343682 19.80807114 346.58035278
3.91510272 19.97073936 347.79675293
3.34489965 19.81415749 348.36776733
2.77464986 19.65782356 348.93716431
2.76450419 19.53728485 350.67791748
1.48649466 19.48766518 351.91961670
3.01922989 19.41167831 344.27255249
3.48787928 19.31944275 345.39517212
3.37744427 19.28168678 345.98535156
3.26504087 19.24394608 346.57528687
3.26699805 19.12247276 348.31753540
2.80518603 19.09366798 348.93182373
2.44769216 18.98137093 350.69573975
1.98183417 18.95289803 351.30572510
1.51397622 18.92448616 351.91415405
4.08450985 18.82213593 344.17947388
3.41277575 18.54168129 344.71176147
3.40799546 18.71751213 345.98040771
3.29556131 18.67978287 346.57022095
3.29753518 18.55770683 348.31231689
2.47726703 18.41706848 350.69030762
2.01139235 18.38909340 351.30020142
1.54342651 18.36127853 351.90859985
3.44527936 17.97788048 344.70687866
3.32705879 18.11555099 346.56527710
3.32808805 17.99284172 348.30718994
2.86529708 17.96499634 348.92132568
2.50679612 17.85276794 350.68487549
2.03985214 17.82525826 351.29476929
4.14869690 17.69261742 344.16992188
3.47112799 17.58885574 345.97048950
3.35765672 17.55108452 346.56024170
3.35867143 17.42797852 348.30197144
2.89485645 17.40059471 348.91610718
2.53635597 17.28826523 350.67947388
2.06945658 17.26136017 351.28921509
4.07175398 17.00263023 344.12115479
3.61699009 16.97507858 344.74127197
3.39410663 16.89928627 345.92108154
3.28065085 16.86142731 346.51055908
3.38927031 16.86291122 348.29681396
2.92539334 16.83613396 348.91091919
2.56591606 16.72377586 350.67407227
1.64498878 16.58269501 351.26031494
3.99572492 16.31299019 344.07238770
3.54102087 16.28593636 344.69226074
3.31713080 16.20992088 345.87158203
3.28841662 16.13621521 350.62179565
4.02832174 15.74830246 344.06759644
3.57250309 15.72181225 344.68750000
4.03950596 15.62219143 345.81033325
4.14432383 15.70899296 348.23495483
2.29361844 15.73037338 348.95053101
3.60410738 15.15757465 344.68267822
3.72565007 15.06916046 345.83358765
3.98571086 15.06343842 348.20791626
3.33258462 14.95894432 348.80075073
2.43743515 14.77967167 350.56533813
3.74706149 14.63143158 344.08801270
3.63563538 14.59324360 344.67797852
3.41078424 14.51709366 345.85684204
3.63992453 14.33957767 348.15908813
3.52147841 14.30181885 348.74792480
3.93685150 13.97578144 344.03375244
3.66823196 14.02885532 344.67315674
3.55579877 13.99072647 345.26272583
3.44232798 13.95266247 345.85202026
3.55110192 13.73621655 348.74267578
3.58735800 13.42619324 345.25793457
3.47391748 13.38813305 345.84716797
4.04769182 13.19424152 348.12261963
3.23617268 13.18471813 348.76293945
2.64859104 13.12364483 349.96258545
3.61896324 12.86155891 345.25317383
3.50451565 12.82345772 345.84231567
4.07833910 12.62807655 348.11752319
3.26571918 12.61951160 348.75778198
2.67720556 12.55899715 349.95730591
4.03808212 12.19477081 345.17984009
3.42741394 12.13559914 345.79232788
3.88761210 12.02931213 346.91455078
4.10894156 12.06170940 348.11233521
3.64195728 12.03908062 348.72714233
3.05330610 11.97894478 349.92764282
4.15582132 11.45517921 345.09552002
4.13961983 11.49534512 348.10723877
3.67255855 11.47321701 348.72204590
3.42963767 11.39778709 349.89804077
4.05852747 11.02092743 346.95053101
4.17026758 10.92878246 348.10214233
3.70216799 10.90720844 348.71688843
3.58169174 10.86948490 349.30502319
3.11252165 10.84823895 349.91711426
4.10472679 10.28580666 345.67547607
3.98046660 10.33214760 346.89965820
4.20088577 10.36221600 348.09707642
3.73275352 10.34124660 348.71176147
3.61128592 10.30348206 349.29983521
2.68777823 10.17673492 349.88958740
4.71314240 9.64717865 346.20349121
3.64095640 9.73737907 349.29464722
4.26120663 9.22887230 348.08706665
3.79305673 9.20893764 348.70153809
3.67058158 9.17119312 349.28952026
4.38571262 8.61937904 346.26190186
4.07335329 8.63422203 346.88494873
4.18216896 8.53977108 348.03543091
3.71400285 8.52039623 348.64984131
3.24577403 8.50116253 349.26260376
4.68968201 7.90825844 346.77868652
4.10412264 7.85106945 347.98385620
3.63592434 7.83225107 348.59802246
3.16766357 7.81358051 349.21066284
4.60193205 7.30303955 347.36312866
4.13470984 7.28456831 347.97869873
3.66553354 7.26626348 348.59298706
3.19727182 7.24814415 349.20550537
4.98139000 6.71576691 347.33087158
4.16537285 6.71800089 347.97372437
3.69618058 6.70024776 348.58786011
3.22688007 6.68263960 349.20031738
4.66329241 6.16871023 347.35321045
4.19503021 6.15130854 347.96871948
3.72574449 6.13411856 348.58276367
3.25647306 6.11707067 349.19522095
4.69401884 5.60143328 347.34826660
4.22575474 5.58459377 347.96371460
3.75541544 5.56791353 348.57772827
3.28612733 5.55142546 349.19009399
4.72468424 5.03409433 347.34335327
4.25536633 5.01776218 347.95874023
3.78604770 5.00168276 348.57269287
5.10420942 4.44438696 347.31106567
4.28603077 4.45091629 347.95376587
3.81568837 4.43535805 348.56768799
4.94544697 3.80383110 347.28390503
3.73650742 3.74878430 348.51538086
3.15827179 3.61380720 349.07998657
4.59809160 3.09169531 347.23437500
4.12875414 3.07704139 347.84939575
3.65830231 3.06261420 348.46295166
6.06164646 2.34623361 335.29489136
5.92361403 2.38381410 335.92437744
5.19960022 2.16780615 336.48611450
4.75123262 2.24501157 337.15634155
4.53803349 2.08753872 337.70190430
4.94824839 2.28754234 338.35983276
4.54408741 2.24334407 338.96896362
4.28136921 2.29858303 339.61087036
3.76118493 2.14120984 340.17611694
3.42644906 2.05478573 340.75823975
-6.32503462 -7.64751911 343.11581421
-7.18817520 -7.67510176 344.32037354
0.47238189 1.67261863 352.03472900
0.37663496 1.89487529 352.72637939
-0.07323582 1.83037949 353.30355835
-0.41759336 1.55581307 353.78463745
-0.34156007 1.75758028 354.46035767
-0.47730210 1.72136211 355.03814697
-1.01495004 1.56227946 355.57171631
-0.89145762 1.61311483 356.76922607
-1.25573587 1.53043175 357.32882690
-2.08175778 1.54497862 357.93750000
-4.10797787 -7.22964382 331.79113770
-4.71321249 -7.30511713 332.38711548
-4.81866312 -7.34996748 332.95758057
-4.78630066 -7.29298306 333.58355713
-4.89384317 -7.33753109 334.15380859
-4.86352634 -7.28013134 334.78002930
-5.72336531 -7.36978769 335.38034058
-5.83486128 -7.41386700 335.94906616
5.50948668 1.73977971 343.73159790
5.05365562 1.59888673 344.29553223
5.38557243 1.78184628 344.95739746
5.15929651 1.62402129 345.50067139
5.03990602 1.58563542 346.08972168
3.62271762 1.32664394 349.03366089
3.25804782 1.43332124 349.69256592
2.67566800 1.30166459 350.25405884
-9.79325867 -8.05856323 348.04754639
1.84471834 107.59472656 355.23187256
1.73502231 106.90270996 355.32223511
1.76342297 106.34799957 355.29608154
2.51435924 106.26564026 353.65228271
2.25945902 105.95242310 354.76583862
2.87658286 106.04765320 352.42236328
2.16931534 105.49285889 353.99734497
2.05342650 105.31709290 354.99246216
2.07799888 105.03228760 353.22769165
1.87296796 104.69431305 354.27297974
2.55027795 104.91855621 354.46127319
2.57570410 104.65814209 355.25238037
2.34145355 104.55332184 352.94619751
2.22563815 104.37937927 353.94567871
2.74717903 104.01680756 355.02243042
2.13504052 103.91790009 353.17526245
3.16732740 104.09426117 351.27975464
2.02468657 103.22682953 353.26644897
2.00509524 102.99826813 354.12695313
2.33449221 102.75115204 355.47552490
2.86850142 103.29241943 351.55957031
2.42655420 102.88021088 352.86825562
1.89508951 102.30825043 354.21719360
2.12883353 102.11889648 355.70141602
2.57038569 102.49359894 351.83892822
2.45517564 102.32248688 352.84213257
2.39077926 101.63967896 355.42401123
2.36383629 101.85807800 352.06933594
2.39183116 101.60254669 352.86474609
2.51136351 101.50933838 353.60952759
2.41858768 101.08389282 355.39862061
2.39250326 101.30039978 352.04318237
2.09497356 100.80693817 353.14144897
2.21325254 100.71466827 353.88647461
2.33109045 100.62143707 354.62969971
2.42121840 100.74167633 352.01702881
1.88939059 100.17550659 353.37023926
2.24184084 100.15796661 353.86038208
2.12524509 99.99111176 354.85699463
2.35789156 100.02073669 352.03952026
2.15216756 99.69253540 353.08914185
2.27044678 99.60027313 353.83422852
2.18080235 99.13565063 353.06298828
2.64997816 99.02486420 354.29940796
2.02930999 99.17491913 350.70031738
3.09879589 99.12089539 352.17257690
2.35236025 98.23432159 354.57446289
1.51550770 98.31027985 350.28265381
1.96604395 98.45414734 350.72293091
2.32311893 98.43615723 351.21328735
2.58693075 98.25612640 351.75262451
2.90842199 98.40490723 352.35006714
2.35569429 97.92980194 353.75674438
1.90274668 97.73370361 350.74548340
1.79238200 97.57196808 351.74856567
2.14683366 97.55346680 352.23916626
2.85436511 97.51596069 353.22039795
1.93277323 97.17501831 350.71786499
1.82109511 97.01406097 351.72250366
2.17620277 96.99550629 352.21234131
3.35302448 97.10015869 352.68389893
2.71788621 96.71569061 354.21954346
1.72807229 96.54522705 350.94903564
1.85057116 96.45613861 351.69567871
2.20503879 96.43730164 352.18627930
2.55860662 96.41832733 352.67736816
2.11337447 95.96823120 351.41271973
2.23382902 95.87912750 352.16024780
2.58735156 95.86006927 352.65133667
4.11482143 95.94201660 353.61785889
2.04871702 95.24872589 351.43545532
2.29472709 95.15306854 352.02774048
2.52261639 95.14102173 352.67404175
3.38852644 94.98211670 354.33615112
4.96948767 95.50223541 353.57437134
2.57304692 94.57946014 351.69238281
2.45847535 94.42249298 352.69601440
3.04143047 94.22551727 354.68057251
4.20079231 94.26226044 353.54019165
3.92517948 93.46940613 352.86148071
4.85646248 93.43447113 351.96545410
4.06855202 92.82131958 353.58557129
3.94471526 92.66593170 354.59008789
5.08222628 91.27387238 361.73223877
4.17740107 92.91228485 350.94934082
4.64780998 92.80461121 352.19702148
4.09740686 92.26152039 353.55935669
4.11455917 90.29579926 361.79690552
4.30675125 90.36590576 362.49105835
0.90515447 90.76984406 355.18060303
1.25097513 90.74902344 355.67098999
4.60028839 91.83459473 353.02044678
4.04248238 89.82994843 361.03152466
4.47135973 89.96504211 361.48071289
4.00520229 89.59118652 362.75662231
4.03807497 92.61576080 347.72717285
0.72458273 90.14308929 354.46060181
0.28828263 89.77320099 355.75057983
0.72496802 89.90917969 356.19348145
4.97911930 91.25254059 353.49008179
4.06952381 89.27612305 361.00701904
4.16798353 89.18895721 361.74856567
3.79723024 88.97540283 362.97741699
3.56181788 91.86365509 348.24136353
0.72825706 89.83044434 353.64535522
0.43057516 89.36791229 354.73345947
0.31620634 89.22032166 355.72555542
5.48357916 90.82247925 352.95092773
4.18582773 89.12481689 360.14895630
3.86186004 88.65917206 361.22937012
3.63117743 88.35233307 362.26080322
3.72890162 88.26604462 362.99890137
4.00365400 91.32611084 347.72286987
0.45923343 88.81401062 354.70767212
0.25187597 88.51072693 355.74661255
0.59577537 88.48921967 356.23654175
1.03263032 88.62441254 356.67950439
4.02287579 88.25412750 360.21664429
3.88821435 88.10558319 361.20562744
3.33042884 87.58117676 362.52606201
3.42769408 87.49528503 363.26376343
3.74853778 90.50444794 347.93722534
3.35041499 90.32017517 349.28610229
0.71721083 88.32231140 354.43093872
0.18673661 87.80134583 355.76840210
0.53126156 87.77968597 356.25741577
3.81560850 87.63755035 360.43954468
3.91533113 87.55194855 361.18112183
3.35674810 87.02938843 362.50231934
3.39975309 89.74753571 348.29263306
3.28570104 89.59856415 349.30862427
0.51590967 87.70603943 354.65682983
2.00407672 87.53546906 357.36203003
3.84274173 87.08341980 360.41503906
3.61284566 86.77999115 361.44885254
3.38308287 86.47750854 362.47857666
3.42971468 89.18419647 348.26583862
0.22154285 86.93437195 354.92962646
0.24392568 86.69583130 355.71694946
0.58774936 86.67403412 356.20663452
1.93840599 86.82478333 357.38320923
4.10371542 86.59006500 360.14379883
3.31183505 86.00998688 361.71530151
3.46027112 88.62082672 348.23834229
0.15643428 86.22489166 354.95138550
0.27184939 86.14295197 355.69186401
0.61565828 86.12096405 356.18157959
0.95852131 86.09891510 356.67178345
1.87192643 86.11436462 357.40493774
1.97992873 86.03130341 358.14645386
4.13094234 86.03520966 360.11932373
3.86970401 85.68203735 361.16860962
3.96376657 88.18382263 347.68655396
3.61165333 87.97425079 348.96752930
4.56190586 87.99662018 349.69656372
0.53021210 85.64965820 355.41525269
0.64432973 85.56797791 356.15585327
0.98649156 85.54574585 356.64669800
1.89989805 85.56050873 357.37985229
2.00789952 85.47783661 358.12133789
4.39329195 85.54048157 359.84649658
4.16195583 85.23995972 360.88333130
3.64162970 87.41110992 348.94076538
4.59189987 87.43269348 349.66979980
3.80631208 86.84580231 351.30142212
1.01880264 85.21482849 354.88690186
2.15916514 85.06583405 357.10549927
2.03585505 84.92435455 358.09634399
4.59225464 84.94024658 359.60351563
2.65265369 86.42868042 349.04025269
4.42850113 86.55124664 349.74179077
3.83550739 86.28420258 351.27545166
0.81661057 84.60118866 355.11355591
1.16113734 84.57897186 355.60400391
1.50410867 84.55655670 356.09573364
2.18719959 84.51116943 357.08038330
2.06321645 84.37062073 358.07199097
4.34687138 84.51230621 359.05313110
2.68255067 85.86685944 349.01354980
3.88414836 85.48258209 352.05047607
1.18921745 84.02451324 355.57897949
1.53218877 84.00209045 356.07058716
2.21531081 83.95648193 357.05532837
3.99719739 83.77408600 359.39105225
3.18262339 85.42572784 348.46508789
4.05386066 84.82405090 351.81445313
1.68004394 83.58609772 355.04974365
1.56097054 83.44759369 356.04492188
2.24336052 83.40181732 357.03024292
2.97751093 84.80279541 348.69934082
1.70890439 83.03052521 355.02389526
1.58908176 82.89281464 356.01992798
2.27144146 82.84693146 357.00527954
4.32827997 82.92536163 358.23257446
2.55567765 84.01988983 349.12817383
4.63412189 83.89742279 351.22085571
1.36580086 82.29553223 355.36575317
1.33697510 82.09392548 356.22381592
-0.25394118 81.24988556 358.65853882
0.74026740 81.41200256 359.34750366
0.75149727 81.17869568 360.12985229
3.58964372 82.02383423 358.05572510
2.37692666 83.24701691 349.26452637
4.14200974 83.13912201 351.73577881
1.34382105 81.55285645 355.31900024
0.01744336 81.03808594 357.58819580
-0.22603920 80.69979858 358.63372803
0.10983904 80.67617798 359.12393188
0.44472599 80.65240479 359.61459351
0.77938449 80.62841797 360.10501099
2.40683818 82.68568420 349.23788452
4.13379145 83.05087280 350.10305786
4.40778065 82.63497162 351.45147705
-0.32540688 80.45847321 357.08908081
-0.16922434 80.34793091 357.75897217
-0.19809145 80.14972687 358.60888672
-0.95705384 79.60502625 360.16940308
-0.53019273 79.73357391 360.61322021
2.90611529 82.23879242 348.68945313
-0.39164174 79.75420380 357.11029053
-0.28002286 79.67688751 357.84735107
-0.71674252 79.34030151 359.12017822
-0.92930961 79.05715179 360.14465332
-0.59697014 79.03293610 360.63421631
2.93607521 81.67626953 348.66284180
4.82546949 81.70293427 350.12399292
-0.04062421 79.40972900 356.79003906
-0.63911343 78.97027588 358.21520996
-0.87252212 78.70481110 359.27548218
-0.90219021 78.50912476 360.12066650
2.49751949 81.00101471 349.15747070
5.10839701 80.95949554 350.64416504
-0.33493233 78.65172577 357.05984497
-1.31693459 78.06131744 358.87329102
-1.43303251 77.93327332 359.85134888
3.66115260 80.97495270 347.98776245
3.35183001 80.52896118 349.10379028
-1.77838111 78.06584167 356.06430054
-1.88883245 77.93827057 357.04785156
-1.53098488 77.68820953 358.31475830
-1.87580216 77.29203033 359.44952393
4.16486597 80.52249146 347.43487549
3.61730242 80.02133179 348.81616211
-2.06847382 77.31254578 356.33316040
-1.95352006 77.23780060 357.06808472
-1.93322945 77.01190948 357.84732056
-1.82195294 76.93701172 358.58151245
-2.12245631 76.50975037 359.64770508
1.45230985 78.99511719 348.44873047
3.88414979 79.51264191 348.52694702
-2.13317609 76.61180115 356.35327148
-2.01830029 76.53763580 357.08816528
-1.90534627 76.46332550 357.82269287
-2.11105037 76.18798828 358.84606934
2.06999946 78.46584320 348.65481567
3.44218659 78.83966064 349.02401733
3.56092024 78.76333618 349.77935791
-2.10448265 76.06240082 356.32781982
-1.99035454 75.98854065 357.06347656
-2.41878796 75.66439819 358.33425903
-2.40019679 75.44045258 359.11065674
1.86823869 77.85131073 348.88751221
2.08495021 77.93034363 349.59234619
-1.78812253 75.66358185 356.02365112
-1.96163106 75.43945313 357.03811646
1.89895809 77.29013062 348.86029053
2.01957965 77.21537781 349.61340332
-2.04703355 74.96325684 356.27713013
-2.15736032 74.84109497 357.25985718
-0.25529581 74.76905060 359.45919800
4.98609018 78.31782532 344.87777710
1.92908311 76.72878265 348.83389282
2.04971862 76.65445709 349.58694458
2.16911793 76.58020020 350.33895874
-2.33765173 74.14321136 357.41799927
-0.63356340 74.06455994 358.05169678
-0.22660168 74.21942902 359.43377686
4.69495487 77.51171875 344.18695068
4.96544456 77.55869293 344.82806396
2.19240975 76.21878052 348.54672241
2.10544086 75.92281342 349.45178223
2.21184182 75.93423462 350.25866699
-1.42586267 73.88805389 356.46710205
-0.72241580 73.39370728 359.00906372
4.48917007 76.88990021 344.42617798
4.37516356 76.76284027 345.45675659
2.68965721 75.75892639 347.99798584
2.38075924 75.32678223 349.11151123
-0.78395957 73.53292084 355.79568481
-1.05912042 73.31332397 356.93115234
4.15784645 76.34297180 343.90197754
4.18326902 76.11380005 344.71676636
4.41915703 76.10894775 345.37423706
4.52835274 76.12110138 346.19223022
-0.57740659 72.85761261 356.40829468
-1.24029160 72.49404144 357.93536377
-0.66647732 72.29483795 358.95977783
-0.55970883 72.22303772 359.69534302
4.42703056 75.82608032 343.60592651
4.11562872 75.39086914 344.73916626
4.22329855 75.34761047 346.47967529
2.63766456 74.50961304 348.96069336
2.54805040 74.21603394 349.86621094
2.77528501 74.21082306 350.51800537
-0.32234225 72.35271454 356.13442993
-1.08092022 71.84139252 357.70803833
-0.63840866 71.74526215 358.93508911
-0.30539575 71.72023010 359.42526245
4.22107506 75.20548248 343.84655762
4.39289904 74.67716980 346.23699951
3.17570233 73.59460449 350.02084351
-1.27790594 71.24539948 357.93014526
-0.94364238 71.22053528 358.42004395
-0.27735710 71.17045593 359.40060425
4.10751295 74.51677704 343.94180298
4.17871618 74.25499725 344.68371582
4.42405987 74.11000824 346.20965576
4.78168249 74.08726501 346.70718384
3.20589066 73.03224945 349.99435425
-1.02400231 70.74118805 357.65802002
-0.91485667 70.67092133 358.39471436
3.84879422 73.70911407 344.15957642
4.21065664 73.68694305 344.65570068
4.57094908 73.66449738 345.15298462
4.81288910 73.52001953 346.67990112
4.02242327 72.99291992 348.33016968
4.04011250 72.76784515 349.13766479
3.58561635 72.44612885 350.46444702
2.33623576 71.83223724 352.60006714
-0.99518454 70.19094849 357.63272095
-0.88674140 70.12101746 358.37017822
3.85437441 73.36672974 343.31689453
3.88078046 73.14112091 344.13153076
3.76935196 73.02075958 345.16098022
4.84415722 72.95253754 346.65261841
4.05278587 72.42790985 348.30361938
-0.56236935 70.38638306 354.75482178
2.03599191 71.07526398 352.87680054
-0.74120063 69.68503571 357.36065674
-0.85865664 69.57115173 358.34558105
3.78682542 72.64381409 343.33929443
3.67689061 72.52439880 344.37030029
3.61247158 71.76767731 348.80065918
-0.96979797 69.70790863 354.28485107
-0.85516065 69.63893127 355.02563477
-0.74290335 69.56987000 355.76687622
-0.34704831 69.29214478 356.97473145
-0.37799430 69.10887909 357.82666016
3.81887460 72.07500458 343.31137085
3.47232795 71.90872955 344.60986328
4.54913187 71.84034729 346.10067749
3.38143611 71.15683746 348.13497925
2.88654041 70.87611389 349.53363037
-0.71380985 69.19891357 354.00741577
-0.60002697 69.13021851 354.75015259
-0.37588033 68.99277496 356.23236084
-0.12293859 68.60133362 357.55410767
5.04997587 69.13545227 359.82299805
3.23434353 71.29354858 343.94134521
3.40448308 71.18842316 344.63226318
4.14406729 70.91947174 346.43734741
3.12383771 70.35868073 348.34762573
3.00812173 70.24304962 349.36486816
-1.13719296 68.55785370 354.48483276
4.36987114 68.44566345 359.66137695
4.46492100 68.37536621 360.40814209
3.33656073 70.46848297 344.65460205
3.22603559 70.35290527 345.68115234
3.93958902 70.30634308 346.67440796
3.38904428 69.84052277 348.05874634
3.03843307 69.68022156 349.33850098
-0.79435670 67.97782135 354.07040405
-0.97126800 67.76815796 355.09399414
-0.75128752 67.76420593 355.73608398
-0.41415465 67.73928070 356.22738647
0.38937676 67.58300781 357.00646973
4.30121231 67.95915985 358.88919067
4.39749813 67.88922882 359.63717651
3.36856031 69.90127563 344.62667847
3.49292445 69.83250427 345.38818359
3.10339284 68.85916901 349.14859009
-0.70478243 67.17313385 354.76480103
-0.36528438 67.14813232 355.25561523
-0.25423646 67.08079529 355.99728394
4.32890177 67.40222931 358.86502075
4.42515564 67.33279419 359.61297607
3.87212849 69.42491150 344.06457520
3.52426744 69.26563263 345.36099243
0.92242932 68.14875031 348.93713379
2.66816711 68.20807648 349.64151001
-0.36868137 67.02522278 353.65255737
0.00157467 66.56955719 355.72222900
4.25934649 66.91403198 358.09170532
4.35735369 66.84526825 358.84005737
4.45285940 66.77627563 359.58874512
4.13999987 68.90143585 343.76940918
3.79189253 68.74347687 345.06719971
2.46598887 67.60243988 349.87451172
-0.32204247 66.25594330 354.41595459
-0.30710036 66.04141998 355.20495605
0.03068988 66.01605988 355.69686890
0.36745816 65.99064636 356.18936157
4.28784609 66.35646820 358.06677246
4.38511992 66.28810883 358.81591797
4.48056316 66.21965027 359.56460571
3.44265962 68.01585388 345.42749023
0.75445694 66.98528290 349.14236450
2.03177619 66.95514679 350.36605835
0.48787928 65.97328186 353.58718872
-0.05035555 65.52863312 354.92794800
0.62429541 65.47769165 355.91381836
0.73174077 65.41132355 356.65753174
4.31558275 65.79884338 358.04263306
4.41358805 65.73096466 358.79101563
3.65406156 67.30494690 345.11151123
1.10375011 66.39583588 348.71527100
0.92702466 66.18806458 349.75881958
0.51724452 65.41726685 353.56185913
0.88195884 64.96372223 355.63751221
4.34417391 65.24108887 358.01773071
4.44133902 65.17372131 358.76690674
0.84980345 65.60826874 348.92532349
0.96898401 65.54268646 349.67782593
0.56101626 64.64776611 354.32797241
0.57354522 64.43451691 355.11898804
0.91115338 64.40891266 355.61212158
4.70375538 64.65662384 358.49215698
6.16235209 64.65696716 359.49359131
3.24788165 66.08561707 345.58761597
3.36911130 66.01950073 346.34899902
0.99994493 64.98271942 349.65100098
2.83992338 64.79225159 352.87905884
1.39784193 63.93263626 355.08392334
1.27629459 63.82798004 356.08102417
1.48591661 63.69741440 357.57061768
5.86196852 64.12487030 358.96725464
6.19021463 64.09774780 359.46929932
3.27934623 65.51894379 345.56057739
3.16646624 65.41185760 346.58554077
1.03099751 64.42263794 349.62417603
0.94743514 63.72315979 353.97778320
0.81191844 63.01995087 357.41323853
1.84663224 63.11684418 358.04086304
5.56073093 63.59268951 358.44149780
5.88983107 63.56563950 358.94305420
6.21803141 63.53843307 359.44509888
3.31145167 64.95231628 345.53280640
3.09764886 64.69631958 346.60736084
1.87168527 63.91714096 349.57397461
1.44696045 63.03230667 354.23941040
1.56363332 62.75586700 355.77963257
0.55845612 62.24571228 357.61383057
6.05296373 62.89625168 358.71224976
6.24587917 62.97910690 359.42080688
3.02863240 63.98087311 346.62905884
2.11622071 63.60813141 348.48440552
1.90210056 63.35567474 349.54779053
4.53365707 63.64603806 351.16189575
4.20586109 63.24269867 352.27206421
1.59296751 62.20006943 355.75427246
2.13515663 61.83438492 358.53228760
5.50836420 62.11147690 359.23394775
3.37505269 63.81864929 345.47811890
2.12818670 63.25771713 347.65292358
1.81597829 62.85783386 348.76596069
2.16460276 62.83285141 349.26153564
4.58869457 63.03677368 350.16381836
4.81102562 63.03480148 350.82092285
4.23556232 62.68019104 352.24655151
1.22932756 61.51492691 356.12802124
1.07172024 61.21312714 357.06594849
1.40388370 61.18662643 357.56072998
1.73510134 61.16007996 358.05593872
1.60711753 61.05987930 359.04721069
3.52021337 63.35513687 344.42098999
3.30605435 63.10213089 345.49972534
3.00302649 62.92326736 346.71780396
2.07878757 62.33409119 348.47848511
2.19581318 62.27067566 349.23468018
2.56623483 61.44668198 353.89682007
1.32482147 60.90516663 355.99884033
1.66198385 60.66876984 357.28591919
1.76423371 60.60576248 358.03063965
1.63492060 60.50653839 359.02340698
3.55244422 62.78703690 344.39328003
3.23705506 62.38590622 345.52127075
2.89016938 62.24563217 346.81060791
2.11002922 61.77141953 348.45166016
1.99487305 61.67068481 349.46798706
3.03324270 61.59458160 350.95706177
3.14323354 61.53129959 351.71331787
3.82707572 61.47964478 352.70941162
1.46225464 60.07820511 357.51004028
1.33472490 59.97993469 358.50329590
3.82057428 62.25756836 344.09783936
3.26925206 61.81920242 345.49356079
3.15553403 61.71834183 346.51968384
2.37354445 61.24592209 348.16336060
2.02608228 61.10890961 349.44122314
2.95133543 61.09523773 350.17492676
3.17367983 60.96965027 351.68722534
3.85688162 60.91783524 352.68402100
1.56761312 59.86618042 355.76730347
1.36324525 59.42644882 358.47875977
3.85286784 61.68866348 344.07015991
3.68185329 61.40188599 345.07882690
3.18763781 61.15242767 346.49203491
2.40483356 60.68246078 348.13650513
2.05735326 60.54693222 349.41442871
2.98182964 60.53259659 350.14880371
3.20418715 60.40792465 351.66110229
2.43054914 59.52518082 354.87045288
0.96014774 58.96118927 357.21472168
6.21068668 59.32558060 359.36413574
3.56843662 60.72238922 345.17218018
3.21916199 60.58636093 346.46514893
2.43557453 60.11881638 348.11044312
2.21971369 59.87372589 349.17559814
2.22393727 59.75102234 350.03353882
2.34748697 59.60342407 350.73419189
2.69152117 59.57751083 351.23068237
3.03377032 59.55157089 351.72848511
4.05062056 59.68240738 352.42129517
2.46002579 58.96717834 354.84515381
0.43528122 58.19412231 357.73202515
6.47554636 58.80103683 359.08847046
3.83539534 60.19139862 344.87841797
3.33934093 59.94574738 346.29437256
2.93347573 59.62690353 347.55822754
2.15057659 59.16415024 349.19622803
2.26550555 59.10317612 349.95196533
2.37866497 59.04205322 350.70739746
3.40562701 58.96382904 352.20046997
0.91360503 57.91330338 356.42095947
0.59266514 57.52985001 357.50311279
6.41272640 58.30304337 358.30969238
6.26725245 58.20639038 359.31500244
3.86773348 59.62309647 344.85070801
3.19788456 59.09738159 347.26898193
2.29601336 58.54124832 349.92587280
2.03415108 58.33705521 351.05606079
2.18901205 58.23908997 351.73965454
2.25509453 58.21587753 352.56304932
0.94299787 57.35858917 356.39575195
0.36343992 57.19936371 357.88754272
6.20490503 57.70831299 358.53668213
6.29522276 57.64657593 359.29086304
3.90010238 59.05468369 344.82302856
3.78382730 58.95830917 345.85406494
3.22930074 58.53190613 347.24212646
3.34528375 58.47132874 348.00305176
2.79143333 58.04774475 349.37942505
2.11916542 57.53271866 351.75997925
1.99851203 57.43907166 352.76867676
0.97240615 56.80378723 356.37054443
0.87827051 56.45546341 357.20397949
2.75460935 56.76131058 357.85559082
6.23289251 57.14788055 358.51245117
6.32323933 57.08664322 359.26663208
3.55108094 58.34101486 345.18334961
3.52380872 58.17082596 346.06802368
3.26151037 57.96640778 347.21453857
2.90989685 57.83766174 348.50018311
2.59028816 57.45074463 349.61279297
2.47093368 57.35729980 350.62847900
2.14962411 56.97237396 351.73391724
2.02819014 56.87976456 352.74343872
1.90609860 56.78738785 353.74954224
0.90757012 55.90145874 357.17880249
5.95809078 56.45727539 358.76806641
3.84417343 57.97732925 344.00210571
3.29069614 57.55376816 345.39837646
2.94217944 57.42634964 346.69009399
3.05939579 57.36681747 347.45098877
2.94135571 57.27347946 348.47344971
2.15740705 56.82158279 350.10577393
2.16962981 56.61674118 350.90704346
2.18003654 56.41203690 351.70791626
1.39831030 55.96558380 353.31915283
1.93579018 56.22886658 353.72430420
6.52638865 56.05936432 358.21139526
3.87666655 57.40801239 343.97448730
2.62274194 56.88618469 346.16540527
2.63911963 56.68080139 346.97482300
2.75640988 56.62193298 347.73443604
2.87199211 56.56291580 348.49377441
2.09987521 55.91016769 350.92736816
2.21044970 55.85149384 351.68188477
0.74324834 55.31321335 354.05389404
1.85020721 55.17420959 356.28970337
1.74264288 54.91329193 357.17910767
3.33700466 56.62483978 344.53054810
3.12124014 56.38620377 345.60885620
2.56986403 55.96954346 346.99526978
2.68710780 55.91117096 347.75488281
2.80186486 55.85269928 348.51480103
2.24101567 55.29094696 351.65594482
0.77290517 54.75650787 354.02874756
3.46621180 55.09379196 354.65798950
3.03384328 55.87745285 344.81790161
2.68736053 55.75457764 346.11047363
2.13782263 55.34085846 347.49331665
2.48637366 55.31480026 347.99005127
2.36928535 55.22525787 349.00961304
2.15040827 54.99066162 350.07275391
2.16168070 54.78794098 350.87466431
2.27155113 54.73020935 351.62994385
0.80320251 54.19986343 354.00289917
2.49696970 54.21025848 354.73211670
2.70056391 54.09489059 356.23397827
3.53419423 55.37393951 344.25720215
2.61752701 55.04274368 346.13165283
2.40184212 54.80814743 347.20343018
1.96716821 54.34102631 349.33697510
2.08066940 54.28390121 350.09304810
2.42377424 54.25730515 350.59008789
2.30278897 54.16942215 351.60330200
1.06124651 53.67286301 353.72448730
1.19669497 53.35874939 354.31030273
1.73224413 53.61903763 354.71624756
7.20425797 53.81654739 358.36502075
2.54760122 54.33123016 346.15277100
2.43339419 54.24337769 347.17669678
1.99854660 53.77875519 349.31030273
2.11201596 53.72211456 350.06637573
2.45437407 53.69536591 350.56408691
2.56462407 53.63863373 351.31979370
1.54946470 53.17440033 353.19021606
1.76187253 53.06142426 354.69107056
3.68629646 53.09748077 355.17166138
4.12008524 53.21454620 355.62686157
7.05327606 53.37038422 356.82373047
6.75794268 53.17561722 357.95013428
2.34788918 53.73513412 346.38903809
2.46569347 53.67866135 347.14935303
2.01658106 53.41720581 348.47952271
1.79935813 53.18665695 349.54321289
2.14267683 53.16008377 350.04043579
2.48567510 53.13349533 350.53741455
2.82716346 53.10669327 351.03555298
1.68661046 52.55979919 353.91534424
1.79154694 52.50379562 354.66595459
6.18492603 52.83345795 356.04574585
7.08224630 52.80723190 356.79882813
7.17208290 52.74972153 357.55831909
2.91427779 53.32663345 345.80020142
2.49800825 53.11375046 347.12188721
1.94690526 52.70964050 348.49987793
1.83076632 52.62468719 349.51660156
2.17406964 52.59809875 350.01379395
2.51639724 52.57135773 350.51144409
2.85784006 52.54444122 351.00961304
3.19824576 52.51748276 351.50820923
1.94644570 52.03004074 353.63562012
1.84050465 51.77408600 354.53131104
7.01898527 52.30086517 356.01467896
7.11126184 52.24397278 356.77392578
7.20100594 52.18695068 357.53344727
2.76211119 52.57794952 346.83187866
1.74820435 52.11794281 348.73324585
1.86223578 52.06261444 349.48999023
2.20550871 52.03592300 349.98718262
2.88847089 51.98220825 350.98364258
3.22893763 51.95514297 351.48226929
2.77020979 51.69914246 352.79797363
1.65118492 51.10258102 354.70401001
6.71789217 51.76501465 355.48458862
6.75135326 51.52486801 356.21951294
5.75034380 51.25041580 358.10485840
4.39019108 52.67825699 344.30163574
3.02704048 52.04101944 346.54110718
2.57857418 51.44673538 350.45886230
2.91992569 51.41982269 350.95700073
3.25961494 51.39270782 351.45629883
2.80079126 51.13850021 352.77212524
2.57281256 50.91246033 353.82708740
6.40624762 51.02858734 355.76037598
5.54384947 50.66271973 358.33230591
4.21586418 51.81721497 344.37161255
4.20192719 51.87855148 345.35656738
1.92453468 50.93808365 349.43753052
3.29731274 50.43391800 353.03509521
3.16865110 50.35237122 354.04556274
6.09572792 50.29370117 356.03472900
5.14417505 49.98755264 357.84936523
5.23504162 49.93257141 358.60317993
3.67551780 51.04627609 344.92663574
3.55893517 50.96393204 345.95715332
2.08567095 50.25959778 349.19708252
2.19747138 50.20561981 349.95455933
2.20694518 50.00865173 350.75662231
3.36873341 50.03126526 352.13665771
3.32784939 49.87266159 353.00909424
3.43070817 49.81854630 353.76480103
5.41825771 49.65164948 356.77227783
4.83661604 49.25846100 358.12005615
3.47412801 50.45030975 345.16546631
3.35691714 50.36896133 346.19546509
0.52577615 49.44982529 350.01574707
3.59671783 50.15671539 347.65423584
3.48580003 49.39104843 351.96981812
3.46055794 49.25763702 353.73962402
5.68259239 49.11638260 356.49368286
4.86475325 48.69924164 358.09600830
0.34245950 48.80052567 349.28137207
0.07269835 48.67922211 350.45578003
3.64381456 48.90751648 350.92639160
4.18829393 49.16648483 351.33523560
3.55695796 48.63834000 353.60760498
5.37273264 48.38624573 356.76757813
0.27309072 48.09852219 349.30096436
-0.06675261 47.99726105 350.56845093
4.11648035 48.45937729 351.35488892
4.11757565 48.26341629 352.16012573
5.06489754 47.65800095 357.03945923
4.92258406 47.58070755 358.04669189
0.39076972 47.87255478 348.42803955
0.19147544 47.46260834 350.28533936
0.30368045 47.41110611 351.03784180
4.04390383 47.75249863 351.37518311
3.91523337 47.67568970 352.39166260
4.85999870 47.07354736 357.26751709
0.32219520 47.17011642 348.44705200
0.33673829 46.97792053 349.24743652
0.45042306 46.92680740 350.00143433
0.33511215 46.85213089 351.01141357
4.07536173 47.18872070 351.34848022
4.17913198 47.13684845 352.10812378
5.36701441 46.75456238 355.93618774
5.12285709 46.53685379 356.99014282
0.36825010 46.41732407 349.22106934
0.48191816 46.36682129 349.97503662
0.59435010 46.31621933 350.72790527
1.04279304 46.23823166 351.97631836
4.10614872 46.62478638 351.32247925
6.35562658 46.50804901 354.98529053
5.15259886 45.97625732 356.96475220
0.40049386 45.85681915 349.19396973
0.51338327 45.80662537 349.94866943
0.62589025 45.75652313 350.70156860
0.63434052 45.56607819 351.50039673
0.97190857 45.53845596 351.99612427
1.07921243 45.48819733 352.74816895
6.47427320 45.86415100 354.81835938
5.41552210 45.43788147 356.68734741
0.88806331 45.34049225 348.64913940
0.54498583 45.24635696 349.92230225
0.56484276 44.86683273 351.51882935
0.90157187 44.83914185 352.01507568
1.23723352 44.81128311 352.51181030
6.50428343 45.29976273 354.79293823
5.84954405 44.98048019 356.25912476
0.57648194 44.68597031 349.89596558
0.91684204 44.65844345 350.39163208
6.05961800 44.69140625 355.28182983
5.70898628 44.33647156 356.38378906
4.01476240 45.16311646 345.46627808
0.83694768 44.14669037 349.61044312
0.61883420 43.93713760 350.66802979
0.72798133 43.88846207 351.42202759
0.96358174 43.72091293 351.96295166
1.39983869 43.83275986 352.41586304
6.56357336 44.17060471 354.74276733
0.75607872 43.63394928 348.82824707
0.43720078 43.28582001 349.93368530
0.77582258 43.25796509 350.43045044
0.65846753 43.18962097 351.44042969
0.99434292 43.16165543 351.93728638
1.32924223 43.13364029 352.43466187
1.66324139 43.10557556 352.93246460
6.05307484 43.35127258 354.30294800
6.25163174 43.44367981 355.01916504
6.23846340 43.25305176 355.82489014
0.44555414 43.09984589 348.30581665
0.46872717 42.72552872 349.90740967
1.48235035 42.64166641 351.39822388
1.58908474 42.59387970 352.15267944
6.17668581 42.73834610 355.03866577
6.26836443 42.68976212 355.79949951
0.47798383 42.53813934 348.27886963
0.53236133 42.31176758 349.00881958
0.50036037 42.16523361 349.88107300
0.83956176 42.13734818 350.37701416
1.17717707 42.10924911 350.87417603
1.51386189 42.08119202 351.37176514
1.62050319 42.03400040 352.12625122
0.68767589 41.47434998 356.48443604
6.11312675 42.22248459 354.25213623
5.97045755 42.15499496 355.26968384
5.72255468 41.94736481 356.32785034
0.42010415 41.65150833 349.09939575
0.53264970 41.60481262 349.85406494
0.87116504 41.57676697 350.35067749
1.20803297 41.54870987 350.84851074
1.54467189 41.52064514 351.34609985
1.65131247 41.47384644 352.10058594
-0.58714229 40.66514587 356.05328369
0.06476529 40.79215240 356.25601196
-0.10301255 40.76799011 357.32006836
6.14316797 41.65797806 354.22674561
5.32104588 41.27353287 355.84310913
0.67946410 41.10877991 348.81390381
0.56425303 41.04423523 349.82775879
0.90275311 41.01619339 350.32437134
1.57624495 40.95996475 351.31973267
1.91117585 40.93167496 351.81845093
-0.88433468 40.13974762 355.53344727
-0.55741572 40.11133194 356.02856445
-0.45568001 40.06586456 356.77276611
-0.35637027 40.02035522 357.51742554
6.17323923 41.09339142 354.20132446
5.92438793 40.88769913 355.26431274
1.08494723 40.66352844 348.40927124
0.59591758 40.48355484 349.80145264
0.93443298 40.45550919 350.29803467
1.60711670 40.39910889 351.29409790
-0.85456234 39.58592224 355.50872803
-0.52767390 39.55750656 356.00378418
-0.20106025 39.52910233 356.49856567
-0.32672215 39.46744537 357.49267578
0.97256911 40.00276184 348.49981689
1.08377004 39.95727921 349.25747681
0.96605211 39.89472580 350.27178955
1.18131030 39.80407333 351.78152466
1.00439060 39.44026947 348.47351074
0.88746464 39.37863922 349.49008179
0.66754222 39.17932510 350.54827881
0.87717360 39.27223206 351.25860596
1.67263949 39.09430695 352.04193115
-0.56952614 38.49359894 355.20751953
-0.46744213 38.44953918 355.95358276
-0.14159104 38.42108154 356.44903564
0.18332964 38.39253235 356.94500732
1.26520741 38.89408875 348.18637085
0.69106555 38.80089951 349.72277832
-0.68083155 37.84336853 355.29431152
-0.53757179 37.75934601 355.97076416
0.11211713 37.70217514 356.96249390
1.18045115 38.27126694 349.17712402
1.06053030 38.21151352 350.19375610
1.73304641 38.15492630 351.18948364
-0.60848010 37.06947327 355.98864746
1.44111800 37.72420883 348.89114380
1.10806251 37.47735977 350.05459595
1.32628167 37.48473358 350.70989990
1.66121304 37.45624924 351.20855713
1.66387284 37.27557373 352.00817871
-0.25320706 36.48690033 356.45895386
1.70244348 37.17601013 348.60430908
1.37573254 36.84371948 349.71334839
1.25534725 36.78652954 350.72830200
1.59004974 36.75795364 351.22680664
1.92376077 36.72931671 351.72573853
0.05362942 36.19178772 355.37255859
-0.22348012 35.93288803 356.43417358
2.29961848 36.87227249 347.14404297
1.28699756 36.22543716 350.70199585
1.95478582 36.16816330 351.70010376
2.11645412 36.11860275 347.26660156
1.39274597 35.93962479 348.92816162
1.43928194 35.71955872 349.66079712
1.54690409 35.67756271 350.41799927
1.65264893 35.63572311 351.17489624
0.74280345 35.22794342 353.79342651
0.61746323 35.17375183 354.79690552
1.91950798 35.54024506 347.50149536
1.47181976 35.15733719 349.63381958
1.57861686 35.11587906 350.39175415
0.77356124 34.67019653 353.76800537
0.73074293 34.53496933 354.63211060
0.75418621 34.48992538 355.46658325
1.95231128 34.97542191 347.47448730
1.83158565 34.92152023 348.49786377
1.61046731 34.55400467 350.36550903
0.80433458 34.11234283 353.74249268
1.80935967 34.29653168 347.58953857
1.75993896 34.22126007 348.51687622
1.87176728 34.00384521 350.07986450
0.73292446 33.59444046 352.96487427
0.83513856 33.55438614 353.71704102
1.03402734 33.47434998 355.22012329
1.35878193 33.44547272 355.71871948
1.80838192 33.57293320 347.51312256
1.68891656 33.52145767 348.53512573
2.13317657 33.45248032 349.79431152
0.43490514 32.89048004 353.23715210
0.76321483 32.86157227 353.73498535
1.09051764 32.83261871 354.23321533
1.31451273 32.66881561 354.77432251
1.40427542 32.71572495 355.58203125
2.71902919 33.93712997 342.36242676
1.95090854 32.96863937 348.24713135
2.39458895 32.89994431 349.50857544
0.69229245 32.51635361 352.16009521
0.36369723 32.19813538 353.25451660
0.69182396 32.16912460 353.75216675
1.01831841 32.14011383 354.25097656
1.34453809 32.11109924 354.74951172
1.44186687 32.07209396 355.50125122
2.52989006 33.26964188 341.61239624
2.18517828 33.20736694 342.91900635
2.20871139 32.58998489 347.15060425
1.98290205 32.40425873 348.22088623
2.42655063 32.33616638 349.48229980
0.72326744 31.95710564 352.13473511
1.87630141 32.58052826 341.40249634
1.76501667 32.53052902 342.43957520
1.88276780 32.49133682 343.20700073
2.33555961 32.59886932 343.65887451
1.90669954 31.87868500 347.43231201
2.01564312 31.83994293 348.19393921
2.45846725 31.77217484 349.45605469
0.42553502 31.25453186 352.40750122
0.42535073 31.08241844 353.20367432
0.75346220 31.05341721 353.70126343
1.07988048 31.02431297 354.19995117
1.40526128 30.99523926 354.69915771
1.73042846 30.96616364 355.19812012
1.57496011 31.86419296 341.69149780
1.69431233 31.82545280 342.45907593
1.81261122 31.78673935 343.22567749
2.15901875 31.75782394 343.72573853
2.04774427 31.27535439 348.16772461
2.15491629 31.23715782 348.92913818
0.35377839 30.56202316 352.42559814
0.45627686 30.52446556 353.17825317
1.60963500 31.29481125 341.66329956
1.72891009 31.25646591 342.43084717
1.84656715 31.21828842 343.19808960
2.19291377 31.18927193 343.69808960
0.38537717 30.00343323 352.39950562
0.48712695 29.96641350 353.15289307
0.81450653 29.93725395 353.65109253
2.24760151 29.86564445 354.64111328
1.64432561 30.72522545 341.63497925
1.53318512 30.67867661 342.67108154
1.88041675 30.64962196 343.17059326
2.22746468 30.62068748 343.66983032
2.44951940 30.11706734 348.61514282
0.87009895 29.45968437 351.86206055
2.05607843 29.46933174 354.07312012
1.67837620 30.15548134 341.60748291
1.56717205 30.11003494 342.64352417
1.91435778 30.08098412 343.14300537
2.26132989 30.05193710 343.64224243
3.75980043 29.98083687 344.61193848
3.17501402 29.57526779 347.80197144
2.81745458 29.52312469 349.08996582
0.90116656 28.89993286 351.83663940
1.00294542 28.86375237 352.59155273
1.33099663 28.83459091 353.09048462
1.65804088 28.80546570 353.58987427
1.98342252 28.77622414 354.09039307
1.94378841 29.59357262 341.30941772
1.49608243 29.40646553 342.66284180
1.84310067 29.37732315 343.16207886
2.18921852 29.34821510 343.66186523
2.53439093 29.31895256 344.16207886
3.56041265 29.40323257 344.85147095
3.66973567 29.36653709 345.62060547
3.20785165 29.00875664 347.77499390
3.08113647 28.96526909 348.80181885
0.93287528 28.34004974 351.81057739
1.03465271 28.30446815 352.56549072
1.68829966 28.24595642 353.56506348
1.42494631 28.70331001 342.68209839
1.77184236 28.67405510 343.18121338
3.59359312 28.83362579 344.82452393
3.46978021 28.79033661 345.85971069
3.24007940 28.44218063 347.74871826
3.11328554 28.39969444 348.77551270
0.96394354 27.78000069 351.78518677
1.06564355 27.74491692 352.54006958
1.94764090 27.69228363 353.28424072
3.05150127 28.28667831 344.56213379
3.39420247 28.25742722 345.06420898
3.50283647 28.22173119 345.83279419
3.09585524 27.76578903 347.86282349
3.14210534 27.66477203 349.55810547
1.55194867 27.19613266 352.00234985
2.20770168 27.13757133 353.00265503
2.06027317 27.71227074 342.04141235
1.84039569 27.53682327 343.12539673
2.29110408 27.64166832 343.57916260
2.63540697 27.61234665 344.07998657
2.97894716 27.58305740 344.58139038
3.32149601 27.55370903 345.08322144
3.38801599 27.56147385 345.92498779
0.92486995 26.69402504 350.97708130
2.23803949 26.57676315 352.97790527
2.56407762 26.54741478 353.47903442
1.98840690 27.00814247 342.06124878
2.10515594 26.97338104 342.82943726
2.21954036 26.93861198 343.59805298
2.56369042 26.90928078 344.09872437
2.90701747 26.87980080 344.59985352
3.24872756 26.85029221 345.10223389
3.12553048 26.81063271 346.13568115
0.85296029 26.16705132 350.19400024
0.95603156 26.13327980 350.95169067
1.05873573 26.09957695 351.70770264
2.26909447 26.01592064 352.95236206
2.59508681 25.98667145 353.45349121
2.59766269 26.34033394 344.07113647
2.94018149 26.31079102 344.57296753
3.05067253 26.27671432 345.34069824
3.15866160 26.24262428 346.10879517
0.65779835 25.60180855 350.42611694
0.86254859 25.53543472 351.93899536
1.97392797 25.48442459 352.42556763
2.30011892 25.45507813 352.92684937
2.62536430 25.42566681 353.42864990
2.39527655 26.00633240 341.68786621
2.74999833 25.80913544 343.00674438
2.63163543 25.77129364 344.04360962
2.97415400 25.74174500 344.54544067
3.08383560 25.70810509 345.31381226
3.19176221 25.67461014 346.08187866
0.51623803 24.93434906 350.53793335
0.46203566 24.87338829 351.45761108
0.79014838 24.84403229 351.95657349
2.33122015 24.89403152 352.90136719
2.65637350 24.86471367 353.40310669
1.86239147 25.29447746 342.24554443
2.89666057 25.20568848 343.74902344
3.00734901 25.17253113 344.51855469
3.11704445 25.13939476 345.28692627
3.22492456 25.10639381 346.05499268
0.28775758 24.21454239 350.71862793
0.39044285 24.18243790 351.47467041
0.71838796 24.15298271 351.97344971
2.68742919 24.30357361 353.37759399
1.79009426 24.59195518 342.26510620
1.90545022 24.55923080 343.03350830
2.69895601 24.63283348 343.98928833
2.93436408 24.47031403 344.53747559
3.04395175 24.43767357 345.30575562
3.04519200 24.27237511 346.11935425
0.87631571 23.95293236 349.33190918
0.42224240 23.62285423 351.44873047
0.75018746 23.59339905 351.94744873
2.39269066 23.77177238 352.85122681
2.71778321 23.74236107 353.35284424
1.71828389 23.88989449 342.28393555
1.83365393 23.85767365 343.05227661
2.86130214 23.76840210 344.55630493
3.20247817 23.73869896 345.05813599
0.80429447 23.09738350 350.15115356
0.90694761 23.06620789 350.90875244
0.78133166 23.03354836 351.92211914
1.10822392 23.00412941 352.42129517
0.83628118 22.53599930 350.12512207
0.93890244 22.50542831 350.88272095
1.26684833 22.47579575 351.38290405
1.13935304 22.44428253 352.39596558
1.78731406 22.75096321 342.22833252
1.90182757 22.71977425 342.99743652
2.24568892 22.68994713 343.49771118
2.69419146 22.79231834 343.95336914
2.92920136 22.63030624 344.50122070
3.14415884 22.73140907 345.22442627
4.05372524 22.67328072 345.96560669
0.64126438 21.97404099 350.35778809
0.97087300 21.94443893 350.85671997
1.29877305 21.91490936 351.35687256
1.47477925 22.11515427 353.04251099
1.93660867 22.15068245 342.96926880
2.27973795 22.12080193 343.47027588
2.62196732 22.09095573 343.97174072
2.96251869 22.06099701 344.47436523
3.64223218 22.00140572 345.47976685
3.74734497 21.97092247 346.24954224
0.90034682 21.41302681 350.07321167
1.00212681 21.38339043 350.83145142
1.33001184 21.35375977 351.33154297
3.62549186 21.46754265 353.24212646
2.66295171 21.58220482 342.13504028
2.31384850 21.55155373 343.44284058
2.65598607 21.52161217 343.94421387
2.99650693 21.49174690 344.44683838
3.31647754 21.40206528 346.75253296
1.48971224 20.82129669 350.28823853
1.36192155 20.79267311 351.30551147
2.33884788 20.70397568 352.80911255
2.57917285 20.98181915 343.14682007
2.68944120 20.95220184 343.91741943
3.03055668 20.92230225 344.41934204
2.90642047 20.89328575 345.45544434
3.24419451 20.86340714 345.95819092
3.34895301 20.83409119 346.72640991
3.02630329 20.60219574 348.75732422
1.84963250 20.22932053 350.76373291
1.72000802 20.20184326 351.78070068
2.04514670 20.17223740 352.28231812
2.36998010 20.14273071 352.78366089
2.84452987 20.41110420 342.85079956
2.95513320 20.38187408 343.62179565
3.06393528 20.35278893 344.39254761
3.17153168 20.32382393 345.16217041
3.27743363 20.29499626 345.93139648
3.38216019 20.26617813 346.69955444
3.48496366 20.23751831 347.46737671
2.91135740 19.94975471 348.84741211
2.41042233 19.75072098 350.18994141
1.75126219 19.64059830 351.75534058
2.07634020 19.61098099 352.25695801
2.40038037 19.58141327 352.75891113
2.88089466 19.68079758 343.64114380
3.09798551 19.78323936 344.36508179
3.09786987 19.62389946 345.18063354
3.20360279 19.59558105 345.94982910
3.30812955 19.56736374 346.71786499
3.41091633 19.53930283 347.48556519
3.17512226 19.38243103 348.55853271
1.91301572 19.10459328 350.71231079
2.01151061 19.07707596 351.47171021
2.10753369 19.04953575 352.23156738
