-6.31889343 54.45290756 351.85449219
-9.88673401 53.76705170 353.63653564
-9.90498352 53.69073105 355.33392334
-10.12065125 53.52203751 355.86557007
-2.93843079 54.74968719 343.07150269
-4.55439758 54.36377716 343.69647217
-4.97657776 54.31261063 344.30642700
-5.07157898 54.28169632 344.88830566
-5.16767883 54.25076294 345.46997070
-3.37629700 54.52237701 347.72406006
-3.80950928 54.47061920 348.33154297
-5.76702881 54.06344986 348.95394897
-6.29650879 53.90562439 351.84945679
-6.83625793 53.71686172 352.40832520
-9.53132629 53.13956451 353.00210571
-9.96580505 53.08861923 353.59283447
-10.63084412 52.97354507 355.32296753
-2.49090576 54.25125504 342.45220947
-3.23500061 54.02438354 343.04071045
-4.53001404 53.81663132 343.69180298
-4.95214844 53.76596832 344.30175781
-5.04718018 53.73495865 344.88363647
-5.14422607 53.70388031 345.46524048
-3.35278320 53.97191620 347.71923828
-3.45384216 53.94057465 348.30316162
-5.41546631 53.53576660 348.92633057
-9.08540344 52.75150299 353.01690674
-9.62223816 52.56468582 353.56942749
-3.09512329 53.37773514 342.98999023
-4.17549133 53.28874588 343.65914917
-4.92774963 53.21912003 344.29711914
-5.02284241 53.18812180 344.87896729
-5.11985779 53.15695572 345.46054077
-3.53230286 53.35844421 348.88192749
-4.50744629 53.01360321 349.43405151
-8.48942566 52.28358841 352.99316406
-9.60102844 52.02176285 353.56439209
-9.71424866 51.98970413 354.13638306
-9.82838440 51.95752716 354.70800781
-3.06962585 52.82854462 342.98526001
-3.82186890 52.75974274 343.62658691
-4.99839783 52.64118576 344.87426758
-3.84199524 52.78864670 348.90026855
-4.13859558 52.40591812 351.13052368
-4.69432068 52.45410538 351.77627563
-8.81985474 51.54610825 352.94888306
-9.25633240 51.49637222 353.54080200
-9.69395447 51.44665909 354.13131714
-9.80815125 51.41437149 354.70294189
-3.04415894 52.27923203 342.98068237
-3.79748535 52.21130371 343.62200928
-4.22161865 52.16175079 344.23321533
-2.71687317 52.32539749 348.24121094
-3.64083862 52.05122757 348.81491089
-6.74586487 51.50284576 350.06118774
-7.94511414 51.30794144 352.98391724
-9.23512268 50.95276260 353.53579712
-9.67262268 50.90342331 354.12637329
-3.01864624 51.72983170 342.97610474
-3.44284058 51.68061829 343.58932495
-3.86700439 51.63145828 344.20104980
-3.66949463 51.43211365 348.79086304
-6.72351074 50.95656204 350.05633545
-8.27555847 50.57044983 352.93945313
-9.21382141 50.40903091 353.53088379
-9.65238953 50.36017990 354.12136841
-2.66304016 51.19770432 342.94274902
-3.41734314 51.13151550 343.58477783
-4.22291565 50.99783707 344.20562744
-2.66976929 51.22127533 348.23175049
-3.97824097 50.86423492 348.80960083
-5.93841553 50.47557068 349.42849731
-6.70114136 50.41006088 350.05154419
-7.13656616 50.28182220 352.35952759
-8.10527039 49.94593811 352.89538574
-8.54374695 49.89742661 353.48855591
-9.30671692 49.83289719 354.09829712
-2.31086731 50.68624115 348.20300293
-3.10975647 50.44397354 348.77578735
-5.91600037 49.92807770 349.42367554
-6.67872620 49.86355972 350.04687500
-8.19705200 49.36821747 353.46475220
-8.81204224 49.22504807 354.03637695
-3.03617859 50.04926682 343.54748535
-3.79257202 49.98497009 344.18753052
-5.13085938 49.44404602 348.79327393
-6.22189331 49.36460114 349.44171143
-7.41145325 49.15099716 350.04748535
-7.05392456 49.07625580 352.88650513
-8.17570496 48.82268524 353.45980835
-3.10670471 49.46766281 344.12768555
-2.50280762 49.38814545 346.38650513
-1.59313965 49.61267471 348.14538574
-3.24307251 49.24427795 348.74838257
-5.87112427 48.83267975 349.41439819
-7.16418457 48.48595810 349.98205566
-7.61463928 48.27409363 353.99191284
-2.74992371 48.93294144 344.09524536
-2.37828064 48.86815643 345.79666138
-2.47825623 48.83620834 346.38189697
-1.89569092 48.88590240 348.10861206
-5.08395386 48.34672928 348.78384399
-5.84773254 48.28491592 349.40969849
-6.50422668 48.09116745 352.87738037
-6.94682312 48.04418182 353.47308350
-2.05984497 48.41208267 344.03475952
-2.92030334 48.31830215 345.26049805
-2.45365906 48.28417969 346.37731934
-2.08995056 48.21755981 348.08248901
-5.06053162 47.79785919 348.77920532
-5.67436218 47.65694427 349.36389160
-6.79208374 47.40790558 349.95028687
-5.93705750 47.53874207 353.41125488
-7.06591797 47.28894806 353.98416138
0.37283325 48.28268051 342.75613403
-2.25317383 47.78571701 344.02560425
-2.79776001 47.79922485 344.67141724
-2.99916077 47.63274765 345.21810913
-4.37734985 47.27668762 348.72738647
-5.14308167 47.21657562 349.35467529
-6.44223022 46.87473679 349.92324829
-5.91459656 46.98944092 353.40637207
0.06324768 47.71293259 342.78112793
-1.67642212 47.32209015 343.99777222
-2.04174805 47.11075592 348.07318115
-4.68415833 46.71326828 348.74639893
-5.12059021 46.66746902 349.35006714
-6.74722290 46.31451035 349.94100952
-5.89305115 46.44012451 353.40136719
-0.36518860 46.90644836 342.14251709
-0.79240417 46.86074829 342.76092529
-1.01277161 47.08441162 343.45278931
-1.98413086 46.75603867 344.02157593
-1.81323242 46.62183380 346.89767456
-2.01812744 46.55719376 348.06860352
-4.99111938 46.15063095 348.76547241
-5.09715271 46.11830902 349.34552002
-5.74052429 45.80508804 349.86883545
-6.83293152 45.73510361 350.51324463
-5.86257935 45.73422623 353.34011841
-0.33860779 46.35246658 342.13824463
-0.76678467 46.30712128 342.75656128
-1.19598389 46.26188278 343.37356567
-1.90998840 46.10160828 343.97558594
-2.73788452 45.94342422 345.17401123
-1.78862000 46.06829834 346.89309692
-1.99349976 46.00344086 348.06399536
-3.42402649 45.72470856 348.67364502
-6.15460205 45.21209335 350.46472168
-0.31196594 45.79830551 342.13388062
-0.74114990 45.75341797 342.75216675
-1.17042542 45.70866776 343.36926270
-2.24081421 45.35130692 344.52264404
-2.33976746 45.31888199 345.10794067
-3.61944580 45.09974289 348.66131592
-4.72076416 45.03139496 349.31329346
-5.80368042 44.67546463 350.43792725
-7.23554993 44.51037216 352.80783081
-0.28633118 45.24397659 342.12963867
-0.71452332 45.19964600 342.74795532
-1.14476013 45.15526199 343.36499023
-1.17150879 44.95209122 347.41943359
-3.59591675 44.54817963 348.65676880
-4.57830811 44.32640839 349.82647705
-6.77255249 44.00671387 352.20739746
-7.21415710 43.96303177 352.80316162
-0.36511230 44.55592346 342.08758545
-0.79435730 44.51195908 342.70581055
-1.22462463 44.46807861 343.32266235
-1.98171997 44.51393127 344.59033203
-2.08067322 44.48151779 345.17593384
-1.04389954 44.42980957 346.82824707
-1.14683533 44.39715195 347.41491699
-2.36155701 44.19652557 348.03573608
-3.57228088 43.99660110 348.65228271
-4.32778931 43.65311813 349.75894165
-6.30944824 43.50197220 351.60549927
-7.07859802 43.44837952 352.22305298
-7.19274902 43.41560745 352.79852295
-0.87316895 43.82468796 342.66354370
-2.77682495 43.49863052 348.01632690
-2.88279724 43.46583557 348.59979248
-6.17591858 42.98617554 351.02377319
-6.28704834 42.95348358 351.60089111
-6.40003967 42.92060471 352.17767334
-6.51423645 42.88771057 352.75415039
-0.84759521 43.27087784 342.65933228
-2.23341370 43.31069946 346.33761597
-5.82392883 42.44715881 350.99752808
-0.82092285 42.71710205 342.65505981
-2.01599121 42.62228394 343.91574097
-0.87152100 42.69644165 345.60192871
-1.30886841 42.65382004 346.21530151
-1.74732971 42.61117935 346.82739258
-2.16662598 42.37909317 348.54235840
-2.08815002 42.40867233 349.72180176
-5.14137268 41.91607666 350.94949341
-6.35618591 41.82328415 352.16845703
-0.79531860 42.16308212 342.65087891
-0.75256348 42.07388687 344.38424683
-1.05430603 41.97510910 346.14511108
-1.82714844 41.92392731 346.78363037
-2.60008240 41.87281799 347.41943359
-2.70504761 41.83994675 348.00302124
-5.11778259 41.36581039 350.94491577
-5.56144714 41.32430267 351.54483032
-6.00413513 41.28293610 352.14328003
-1.02963257 41.42015076 346.14074707
-2.13699341 41.36135101 346.80517578
-2.93751526 41.13753128 347.37896729
-3.45195007 41.13743591 348.00820923
-3.55900574 41.10445404 348.59024048
-5.09536743 40.81552505 350.94039917
-6.31228638 40.72554398 352.15930176
-0.63844299 41.18694687 342.68078613
-1.27226257 40.98057938 343.84603882
0.41464233 41.12202072 344.32928467
-0.48493958 40.96480560 346.12713623
-2.21794128 40.67536163 346.76126099
-3.09341431 40.49412537 347.35644531
-3.63896179 40.42020798 348.54586792
-3.74697876 40.38710403 349.12728882
-4.40960693 40.28012848 350.89190674
-4.96829224 40.20631027 352.07189941
-4.31750488 40.12918091 353.74810791
1.75894165 40.78851700 343.09634399
0.33390808 40.43253708 344.28588867
-0.30619812 40.32526016 346.07846069
-1.75321960 40.26160431 346.77072144
-3.61540222 39.86823654 348.54144287
-4.71966553 39.72143936 350.90945435
-4.83171082 39.68836594 351.48861694
-4.62763977 39.56955338 353.76269531
1.68792725 40.19693375 343.68359375
0.02217102 39.86853790 344.31036377
-0.07783508 39.83533096 344.89859009
-2.16868591 39.56819153 346.75256348
-2.71275330 39.39608002 347.32232666
-2.81869507 39.36288452 347.90545654
-2.92564392 39.32968140 348.48825073
-3.49270630 39.54688263 349.19921875
-4.03184509 39.18352890 350.86090088
-3.82266235 39.06349182 353.13931274
-4.60607910 39.01732254 353.75799561
0.14768982 39.34553909 343.71774292
0.04785156 39.31222534 344.30615234
-0.05204773 39.27902222 344.89431763
-1.86016846 39.03910446 345.55703735
-2.35456848 38.84933853 347.29232788
-2.79507446 38.80982590 347.90109253
-2.90209961 38.77651596 348.48385620
-3.12005615 38.71000671 349.64859009
-3.45602417 38.61009216 351.39312744
-3.56903076 38.57673264 351.97390747
-3.68403625 38.54342270 352.55447388
-3.80010986 38.51008987 353.13461304
-4.58547974 38.46487808 353.75344849
0.17341614 38.78911591 343.71371460
-1.03500366 38.70401001 344.97406006
-2.35067749 38.38971710 345.56289673
-2.45361328 38.35649490 346.14678955
-2.55851746 38.32324219 346.73040771
-2.66357422 38.28988647 347.31375122
-2.77044678 38.25658417 347.89678955
-2.87846375 38.22333527 348.47958374
-2.43995667 38.36547852 350.84552002
-3.54638672 38.02333450 351.96936035
-3.66247559 37.98989868 352.54983521
-3.77845764 37.95656586 353.12994385
-0.39239502 38.05868530 341.92709351
-0.27714539 38.28764725 342.59259033
0.09925842 38.19939804 344.29800415
-1.11479187 38.01773834 344.93041992
-2.32604980 37.83657074 345.55880737
-2.42897034 37.80327225 346.14257813
-2.53393555 37.77000809 346.72622681
-2.63986206 37.73662567 347.30957031
-2.74687195 37.70330429 347.89254761
-2.85485840 37.66998291 348.47528076
-2.96382141 37.63661957 349.05761719
-3.07377625 37.60322189 349.63977051
-2.85754395 37.67341995 350.82189941
-2.85438538 37.47982025 351.92214966
-3.63978577 37.43639755 352.54522705
-3.75579834 37.40296936 353.12533569
-4.20753479 37.36460876 353.72457886
-0.36570740 37.50379181 341.92318726
-0.79714966 37.46528244 342.54104614
0.46357727 37.64800262 344.26519775
-1.53031921 37.32656860 344.91470337
-2.30044556 37.28335190 345.55468750
-2.40431213 37.25001144 346.13848877
-2.50935364 37.21667099 346.72204590
-2.61526489 37.18327332 347.30529785
-2.72227478 37.14986420 347.88827515
-2.83023071 37.11651611 348.47097778
-2.93913269 37.08315659 349.05331421
-2.60379028 36.99214554 350.75360107
-2.83174133 36.92522049 351.91763306
-3.28247070 36.88721848 352.51989746
-3.73419189 36.84924316 353.12075806
-3.85127258 36.81588364 353.70037842
-0.33906555 36.94871521 341.91925049
-0.43589783 36.91521454 342.50680542
-0.62333679 37.04322433 344.93408203
-1.94218445 36.73445129 345.52322388
-2.48530579 36.56612778 346.09420776
-2.48469543 36.66321564 346.71792603
-2.59065247 36.62984848 347.30114746
-2.58193970 36.53366470 349.02496338
-2.91587830 36.43337250 350.77166748
-2.92504883 36.33686447 352.49450684
-4.14993286 36.16050339 353.09390259
-0.41023254 36.36000061 342.50286865
-0.70787048 36.25934219 344.26382446
-1.48001099 36.21789551 344.90661621
-2.11363220 36.01670456 348.41311646
-2.55728149 35.97953033 349.02066040
-2.55749512 35.88255692 350.74462891
-2.90147400 35.78199768 352.48986816
-0.04795837 35.80829239 342.46841431
-0.58132935 35.73743057 343.67312622
-0.68215942 35.70382690 344.25982666
-1.45433044 35.66339493 344.90261841
-1.89192200 35.62639618 345.51513672
-2.54243469 35.52249908 347.29290771
-2.19889832 35.42845154 348.99221802
-2.19810486 35.33081055 350.71768188
-2.09127808 35.26660156 351.86105347
-3.61906433 35.13406754 352.49890137
-0.20384216 35.16475296 342.44833374
-0.55560303 35.18191147 343.66921997
-0.65647888 35.14821625 344.25585938
-0.75840759 35.11458969 344.84228516
-1.53161621 35.07513428 345.48361206
-2.22361755 34.86439896 346.05047607
-2.51643372 34.87236023 346.66516113
-2.62342834 34.83874893 347.24807739
-2.73135376 34.80510712 347.83065796
-2.17523193 34.87348938 348.98797607
-1.95359802 34.74417114 351.27377319
-2.40435791 34.70803833 351.87811279
-3.29751587 34.53886032 352.45922852
-1.97583008 34.39140320 343.11859131
-0.83660889 34.52508545 345.42446899
-1.92909241 34.19316101 346.56735229
-2.36965942 34.15741348 347.17715454
-2.81135559 34.12166977 347.78561401
-3.70205688 33.95136642 350.71548462
-1.92994690 34.18809891 351.26934814
-1.95117188 33.83813858 343.11486816
-2.05212402 33.80430222 343.69915771
-0.91578674 33.93546295 346.00625610
-2.78773499 33.56801605 347.78149414
-3.56443787 33.43177032 350.13092041
-4.01220703 33.39676666 350.73376465
-0.36775208 33.35530472 342.99584961
-2.35812378 33.24966049 343.72445679
-0.99600220 33.34561157 346.58761597
-1.31617737 33.05226898 347.09030151
-2.42935181 33.01525879 347.75183105
-2.99038696 33.04263306 349.56399536
-3.54182434 32.87845612 350.12664795
-3.98866272 32.84397888 350.72943115
-1.23258972 32.73278809 343.04742432
-1.66716003 32.69814682 343.66204834
-2.10275269 32.66348648 344.27542114
-1.73518372 32.46197128 347.69635010
-3.07237244 32.35916901 349.51815796
-3.51824951 32.32509232 350.12237549
-1.30680847 32.14423752 343.62878418
-2.07710266 32.10985947 344.27160645
-2.93580627 31.83893776 348.93267822
-3.04875183 31.80507469 349.51400757
-3.49559021 31.77147484 350.11816406
-0.61167908 31.58895302 343.56579590
-1.71777344 31.55570412 344.23892212
-2.48915100 31.52243996 344.87963867
-1.13873291 31.60885429 347.74566650
-2.57829285 31.28424263 348.90405273
-3.02510071 31.25099754 349.50979614
-3.13813782 31.21724510 350.09069824
0.08650208 31.03146935 343.50244141
-1.69207764 31.00127983 344.23516846
-2.46351624 30.96901512 344.87585449
-1.43623352 30.76035118 348.24230957
-2.55371094 30.72959709 348.89990234
-3.00149536 30.69682121 349.50567627
-3.11549377 30.66303444 350.08648682
-0.22352600 30.47579765 343.52850342
-2.10591125 30.32046127 344.21990967
-2.64730835 30.16020203 344.79101563
-2.98133850 30.25531769 345.44183350
-2.19517517 30.17322922 348.87121582
-2.97787476 30.14254951 349.50155640
-3.19650269 29.98040962 350.03988647
-2.18492126 29.63914490 344.17572021
-2.62266541 29.60696602 344.78717041
-3.06045532 29.57490921 345.39736938
-1.83558655 29.61570168 348.84246826
-2.28443909 29.58387184 349.44943237
-2.16030884 29.08529091 344.17199707
-2.59710693 29.05364227 344.78347778
-3.03579712 29.02205276 345.39358521
-1.81195068 29.05972481 348.83843994
-1.36312866 28.55976868 343.52554321
-2.13465881 28.53146553 344.16827393
-2.23960876 28.49711800 344.75122070
-3.01020813 28.46913528 345.38980103
-0.77653503 28.49413300 348.75955200
0.43751526 28.34619331 343.50448608
-1.77514648 27.97392654 344.13537598
-2.21395874 27.94309616 344.74755859
-2.31991577 27.90882874 345.33010864
-0.75180054 27.93648338 348.75555420
0.24401855 27.68783951 343.48013306
-1.08085632 27.41120720 344.07305908
-1.52056885 27.38081360 344.68640137
-2.29525757 27.35467339 345.32641602
-0.39006042 27.37442398 348.72653198
0.05046082 27.03048515 343.45574951
-1.05511475 26.85548019 344.06942749
-1.49586487 26.82556534 344.68270874
-1.93568420 26.79580688 345.29458618
-0.70423889 26.82072639 348.74765015
-0.25520325 26.74274254 349.86752319
0.08209229 26.31911087 343.39074707
-0.69453430 26.29457664 344.03634644
-1.13536072 26.26515198 344.65020752
-1.57713318 26.23571968 345.26266479
-0.23136902 26.18366623 349.86337280
0.10881042 25.76171303 343.38714600
-0.43780518 25.69791031 344.58853149
-1.21649170 25.67459297 345.23068237
0.02124023 25.69318008 348.68936157
-0.20758057 25.62449646 349.85931396
0.47148132 25.19808960 343.35324097
0.02972412 25.16937637 343.96981812
-0.41206360 25.14078903 344.58486938
-0.85591125 25.11236763 345.19854736
-1.63467407 25.09019470 345.83853149
-0.29295349 25.14017487 348.71054077
0.16137695 24.64649773 343.38003540
0.05645752 24.61178780 343.96618652
-0.38632202 24.58366394 344.58129883
-0.83016968 24.55564308 345.19494629
-1.27397156 24.52776146 345.80703735
0.06987000 24.57455063 348.68139648
0.08229065 24.05395889 343.96264648
-0.36054993 24.02634239 344.57766724
-1.69007874 23.85331917 345.78912354
-0.24533081 24.02241516 348.70266724
-0.99221802 23.19125557 345.10333252
-1.10842896 23.33812141 346.93933105
-0.32731628 23.33716583 348.65545654
-0.30905151 22.91148949 344.57058716
-1.08363342 22.78107262 346.93554688
-0.41027832 22.65219498 348.60812378
0.15953064 22.38008118 343.95214844
-0.39007568 22.22894096 344.52484131
-0.83494568 22.20299339 345.13833618
-1.13301086 22.21573639 345.75500488
-0.47111511 21.54680061 344.47915649
-0.91500854 21.52137947 345.09243774
-1.02497864 21.48646355 345.67608643
-1.13493347 21.45165253 346.25939941
-0.02262878 21.52502823 348.57479858
1.56721497 21.22476768 343.82504272
-0.89036560 20.96442413 345.08889771
1.25404358 20.67457581 343.85180664
0.36228943 20.53576088 344.45562744
-0.19143677 20.38661385 345.02752686
-0.97447205 20.37258530 345.66891479
0.36511230 20.39546013 348.54138184
0.17137146 19.81747055 344.99490356
-0.61262512 19.80449486 345.63687134
0.86982727 19.29818344 347.92233276
1.56382751 18.85844421 343.76876831
0.88465881 18.97100830 344.45837402
0.66795349 18.81192780 345.00164795
0.11311340 18.66496468 345.57275391
1.23582458 18.72518158 347.89212036
1.48185730 18.17407990 343.72262573
1.37397766 18.13874817 344.30972290
0.47604370 18.09351349 345.54064941
1.26072693 18.16372490 347.88836670
0.80366516 18.14163399 348.50033569
1.74000549 17.56511688 344.27621460
1.28565979 17.60228539 347.88458252
0.48730469 17.59375763 348.52236938
2.10798645 16.99044991 344.24264526
0.63760376 17.00951958 344.94824219
0.52670288 16.97443008 345.53363037
0.41485596 16.93931580 346.11868286
0.40879822 17.02776718 346.74710083
0.96838379 17.05434799 347.90740967
0.85238647 17.01950645 348.49273682
1.79272461 16.44289207 344.26937866
0.66336060 16.44988060 344.94488525
0.55250549 16.41469574 345.53021240
0.32675171 16.34451866 346.69985962
1.13928223 15.91081715 344.32598877
0.58134460 15.76754093 344.89794922
0.36256409 15.60964108 345.43933105
0.35154724 15.78477383 346.69631958
1.50431824 15.33534908 344.29278564
0.37741089 15.22495556 346.69268799
1.87141418 14.75874615 344.25927734
0.73992920 14.77037716 344.93475342
0.62901306 14.73519802 345.51986694
0.51614380 14.70006275 346.10464478
0.40225220 14.66499805 346.68917847
1.89730835 14.19712067 344.25595093
1.33734131 14.05586147 344.82873535
0.73713684 14.00156879 345.43869019
0.43309021 14.01788712 346.05725098
0.42709351 14.10493946 346.68572998
2.26445007 13.61881638 344.22250366
0.23709106 13.30099392 346.59365845
2.17953491 13.02095318 344.80664063
0.59068298 13.01968002 346.09442139
2.54771423 12.44077969 344.77355957
1.14561462 12.32020569 345.40710449
1.18133545 12.38842487 346.61962891
2.14547729 11.29811954 345.38354492
2.14224243 11.17318058 347.11511230
3.08561707 10.64149857 345.88055420
2.16720581 10.61002254 347.11163330
3.45599365 10.05706882 345.84811401
2.65142822 10.06188488 346.49340820
2.53451538 10.02657795 347.08038330
3.48098755 9.49211502 345.84475708
2.67636108 9.49803066 346.48999023
2.55947876 9.46271896 347.07690430
3.50595093 8.92716026 345.84149170
2.78561401 8.75902462 346.40722656
2.50930786 8.12928772 346.39266968
3.67181396 7.83255768 345.24633789
3.47296143 7.11166763 345.78613281
3.01271057 7.09901237 346.40255737
4.41468811 6.65542507 345.18029785
3.38899231 6.42672157 345.73742676
2.92866516 6.41461849 346.35366821
4.22067261 5.84953690 345.08624268
3.30494690 5.74250603 345.68829346
2.50112915 5.75497055 346.33316040
5.85250854 4.53283215 333.73983765
5.18690491 4.51111221 334.38839722
5.10256958 4.55288315 335.61352539
4.89382935 4.39802837 336.16201782
4.00033569 4.29318810 336.78579712
4.00868225 4.37317944 337.41815186
4.01597595 4.45340347 338.05062866
3.58178711 4.33348179 339.22473145
5.02098083 4.23588562 342.07659912
4.64285278 4.17693710 342.67361450
4.64118958 4.25916576 343.30853271
2.84802246 4.26279354 344.01287842
0.88591003 4.02610207 345.20898438
2.35986328 3.94492030 348.66162109
1.39242554 4.05799198 349.34658813
-0.82821655 3.89256358 349.95913696
-1.56919861 3.94101977 350.59823608
-2.02874756 3.80601573 351.14495850
-2.05072021 3.88979888 351.76892090
-2.28596497 3.73786139 352.29837036
-2.20581055 3.94018435 352.96932983
-2.51306152 3.70965409 353.46603394
-2.93707275 3.83308482 354.11767578
-3.48872375 3.65503669 354.64147949
-3.62286377 3.62170482 355.21484375
-4.28944397 3.68384671 355.84161377
4.78031921 3.56563497 341.44598389
4.66958618 3.52901673 342.03591919
3.64428711 3.47221398 343.86682129
1.32307434 3.29289031 348.66656494
1.20018005 3.25799537 349.24951172
-13.42289734 -7.61009216 345.03216553
-13.65391541 -7.56301117 345.65161133
-14.63197327 -7.61897469 347.38125610
-14.90333557 -7.75698471 347.87097168
-15.17671204 -7.89470577 348.35961914
-15.17204285 -7.83419609 348.97354126
4.03564453 2.45114326 342.09625244
1.37094116 2.16746211 348.65927124
-0.16044617 1.81398726 351.52133179
-0.63017273 1.80746007 352.12399292
-1.10092163 1.80116701 352.72512817
-1.36614990 1.73341680 353.87969971
7.28916931 2.13153791 335.36904907
6.40646362 2.18976378 337.27023315
5.29338074 2.01508355 339.07598877
3.83712769 1.81346083 343.26980591
1.51774597 1.63961196 348.07266235
-0.65362549 1.71199393 352.91210938
-0.57691956 1.61656046 354.04705811
-1.05374146 1.61127496 354.64556885
-22.25914001 123.30668640 361.84881592
-22.53810120 122.98179626 360.47674561
-22.45704651 122.73294830 361.19467163
-22.41297913 122.63303375 362.00375366
-22.42253113 122.30435944 362.80926514
-22.85087585 122.07388306 360.76687622
-22.69883728 121.98045349 361.43969727
-22.35404968 121.97013855 361.88720703
-22.20487976 121.87560272 362.55996704
-22.64427185 122.04646301 359.75195313
-22.82722473 121.55999756 360.74160767
-22.67597961 121.46646881 361.41519165
-22.33128357 121.45616150 361.86260986
-22.18269348 121.36155701 362.53613281
-22.73313904 121.40016174 359.83242798
-22.80445862 121.04601288 360.71697998
-22.65306091 120.95250702 361.39062500
-22.93440247 120.62452698 360.01879883
-22.78166199 120.53206635 360.69247437
-22.63023376 120.43853760 361.36605835
-22.28614807 120.42817688 361.81430054
-22.13685608 120.33463287 362.48730469
-22.91087341 120.11061859 359.99353027
-22.75785828 120.01714325 360.66720581
-22.67851257 119.77123260 361.38528442
-22.33445740 119.76088715 361.83343506
-22.09730530 119.74613190 362.41754150
-22.69349670 119.67797852 359.74093628
-22.54087830 119.58544159 360.41595459
-22.72737122 119.10386658 361.40521240
-22.38349915 119.09352112 361.85321045
-19.74186707 119.67488098 363.11376953
-22.47608948 119.24533081 359.48837280
-22.32371521 119.15276337 360.16448975
-20.06156921 119.16943359 362.63821411
-21.33128357 119.44927216 358.22827148
-22.10530090 118.72015381 359.91146851
-22.22132874 118.39182281 360.85937500
-21.87651062 118.38143158 361.30822754
-20.45408630 118.51062012 362.20608521
-19.77058411 118.48641968 363.11016846
-21.50334167 118.84892273 358.43246460
-21.88749695 118.28552246 359.65924072
-21.92576599 117.71309662 361.32772827
-20.84724426 117.85178375 361.77468872
-20.50431824 117.84024811 362.22583008
-20.21571350 117.65347290 363.58032227
-21.86378479 117.76862335 359.63394165
-21.71275330 117.67691040 360.31155396
-20.48210144 117.32421112 362.20193481
-20.13999939 117.31165314 362.65362549
-20.46369934 116.90377808 363.82516479
-20.32218933 116.80983734 364.50173950
-21.40632629 117.58660126 358.24243164
-21.25392151 117.49582672 358.92294312
-21.60789490 117.11289215 360.16467285
-21.41719055 116.99613190 360.78118896
-21.14573669 116.83128357 361.27569580
-20.80195618 116.81977844 361.72628784
-20.45976257 116.80719757 362.17807007
-20.11769104 116.79563904 362.62979126
-20.51518250 116.23533630 363.84533691
-20.37297058 116.14247131 364.52117920
-20.03578186 116.12870789 364.97357178
-21.18699646 117.14914703 357.98730469
-21.42616272 116.89747620 359.12698364
-21.81214905 116.33917999 360.35101318
-21.46739197 116.32771301 360.80120850
-20.43611145 116.29131317 362.15277100
-20.49290466 115.72030640 363.82150269
-20.35072327 115.62744141 364.49743652
-20.21015930 115.53452301 365.17312622
-21.59913635 116.29910278 359.33163452
-21.44432068 115.81075287 360.77658081
-20.75660706 115.78681946 361.67779541
-20.72514343 115.56655884 362.46014404
-20.61366272 115.29721832 363.12081909
-20.47062683 115.20532227 363.79772949
-20.32835388 115.11244202 364.47369385
-21.84394836 115.55037689 359.57968140
-21.76615906 115.30724335 360.30194092
-21.42140198 115.29479980 360.75201416
-21.07731628 115.28331757 361.20281982
-20.73426819 115.27079773 361.65399170
-20.93190002 114.79482269 362.64556885
-20.59141541 114.78118896 363.09701538
-20.44828796 114.68929291 363.77392578
-20.30668640 114.59734344 364.45062256
-21.89402771 114.88096619 359.59967041
-21.39830017 114.77881622 360.72747803
-21.05430603 114.76635742 361.17822266
-20.71116638 114.75382996 361.62954712
-20.56904602 114.26616669 363.07330322
-20.42591858 114.17429352 363.75015259
-20.35865784 113.92991638 364.47039795
-20.09584045 113.76273346 364.96612549
-21.40632629 114.67427063 359.07232666
-20.98374939 114.41854858 360.24746704
-20.41969299 114.07186890 362.10070801
-20.54670715 113.75015259 363.04946899
-20.20701599 113.73647308 363.50149536
-21.45671082 114.00386810 359.09204102
-21.30619812 113.91401672 359.77200317
-20.96061707 113.90157318 360.22296143
-20.27207947 113.87657928 361.12628174
-20.47200012 113.40236664 362.12133789
-20.52436829 113.23516083 363.02572632
-20.18464661 113.22046661 363.47769165
-19.84654236 113.20671082 363.93099976
-21.43351746 113.48587799 359.06747437
-21.28303528 113.39710236 359.74752808
-20.93754578 113.38464355 360.19839478
-20.44969177 112.88636780 362.09750366
-19.89866638 112.53825378 363.95053101
-19.63676453 112.37098694 364.44812012
-19.33534241 114.28399658 356.77990723
-21.13822937 112.80407715 359.53811646
-21.18431091 112.63786316 360.44601440
-21.50102234 112.24403381 361.62255859
-19.74623108 112.34195709 362.97933960
-19.95152283 111.86979675 363.97070313
-18.91169739 113.91860962 356.28601074
-21.62638855 111.81683350 360.92135620
-21.47862244 111.72799683 361.59875488
-21.13710022 111.71544647 362.04989624
-20.79634094 111.70082855 362.50152588
-19.72383118 111.82495117 362.95553589
-21.75190735 111.38964844 360.21856689
-21.60334778 111.30182648 360.89688110
-21.45549011 111.21305084 361.57443237
-20.65254211 111.10864258 362.29534912
-19.21690369 112.88410187 355.78216553
-21.41947937 111.07541656 359.86053467
-21.58018494 110.78587341 360.87249756
-18.40580750 110.98841095 363.13787842
-19.19355774 112.36018372 355.75735474
-19.24046326 112.19429779 356.67977905
-21.51078796 110.43208313 359.94146729
-21.36235046 110.34416962 360.62106323
-20.67750549 110.31701660 361.52484131
-20.53251648 110.22808838 362.20388794
-18.18418884 110.54477692 362.88732910
-19.16944885 111.83728027 355.73196411
-19.01643372 111.74815369 356.42007446
-21.09736633 110.06381226 359.45986938
-21.14396667 109.90152740 360.36880493
-20.99674988 109.81363678 361.04855347
-20.72953796 109.64859009 361.54452515
-20.31361389 109.78634644 361.95349121
-19.85173035 109.69352722 362.22372437
-18.16157532 110.02574921 362.86346436
-18.54521179 111.54386139 354.99990845
-21.07408142 109.54585266 359.43530273
-20.92555237 109.45890045 360.11648560
-17.93928528 109.58023071 362.61190796
-18.52098083 111.01896667 354.97442627
-19.12059021 110.39620209 356.46084595
-20.85548401 109.10227966 359.18182373
-20.90232849 108.94096375 360.09197998
-20.75471497 108.85404205 360.77218628
-17.51664734 109.20912933 362.13192749
-16.83793640 109.17828369 363.04766846
-18.45930481 110.17588806 355.70880127
-21.22319031 108.43753815 359.61541748
-20.87910461 108.42397308 360.06756592
-20.53584290 108.40937805 360.52023315
-20.19343567 108.39575195 360.97351074
-17.69505310 108.61459351 362.33724976
-16.81599426 108.65720367 363.02450562
-21.07975769 108.23032379 358.63623047
-21.20066833 107.91953278 359.59170532
-20.85658264 107.90598297 360.04382324
-20.51332092 107.89238739 360.49655151
-20.17082214 107.87772369 360.94982910
-17.61207581 108.25652313 361.39822388
-17.27110291 108.24162292 361.85568237
-16.93159485 108.22566223 362.31430054
-16.79328918 108.13619995 363.00067139
-21.13139343 107.56086731 358.65612793
-20.98118591 107.47499847 359.33746338
-20.83326721 107.38802338 360.01937866
-20.14750671 107.35977173 360.92538452
-17.04743958 107.79319763 361.60238647
-17.11027527 107.63108826 362.51937866
-21.10816956 107.04193115 358.63146973
-21.07359314 106.83258057 359.41894531
-20.88542175 106.71956635 360.03894043
-20.46739197 106.85639191 360.44845581
-17.16496277 107.35968018 360.89025879
-17.02479553 107.27115631 361.57849121
-17.20637512 106.98454285 362.60107422
-20.88841248 106.59546661 358.37594604
-17.14228821 106.83766174 360.86636353
-17.00273132 106.74910736 361.55532837
-20.66871643 106.14703369 358.12036133
-20.71577454 105.99051666 359.03485107
-20.42134094 105.82041931 360.40039063
-17.11952209 106.31469727 360.84240723
-16.97999573 106.22711182 361.53149414
-20.64601135 105.62799072 358.09664917
-20.29951477 105.61348724 358.54962158
-20.31864929 105.30388641 359.36956787
-20.08064270 105.29280853 359.96179199
-16.89558411 105.86427307 360.58789063
-17.17173767 105.47966003 361.69839478
-20.17701721 105.35022736 357.57788086
-20.27610779 105.09352875 358.52517700
-16.87278748 105.34126282 360.56396484
-20.00825500 104.79876709 357.35159302
-20.05537415 104.64412689 358.26904297
-20.06086731 104.25791168 359.04342651
-19.96522522 104.01924133 360.64077759
-16.84996033 104.81828308 360.54010010
-19.71458435 104.11170197 357.82592773
-19.84065247 103.80745697 358.78811646
-20.08775330 103.58535004 359.93353271
-19.74540710 103.56965637 360.38793945
-19.67094421 103.20326996 359.44976807
-19.72270203 103.05062866 360.36422729
-19.38117981 103.03488922 360.81930542
-15.24125671 103.77471924 362.10400391
-21.47810364 102.10275269 360.68072510
-19.78443909 102.57483673 359.56213379
-15.21842957 103.25070190 362.08007813
-22.36772156 101.37422943 359.96270752
-22.02577209 101.35865784 360.41387939
-21.68556213 101.34297943 360.86639404
-15.37089539 102.63285828 361.34671021
-15.43821716 102.47737122 362.26950073
-22.68641663 100.87481689 359.48709106
-22.42039490 100.71077728 359.98205566
-22.07936096 100.69515228 360.43383789
-21.73838806 100.67855072 360.88546753
-15.67237854 101.91649628 361.66070557
-15.73963928 101.76206207 362.58227539
-22.47315979 100.04734802 360.00125122
-22.13218689 100.03073120 360.45294189
-15.85243225 101.32479858 361.86752319
-22.44703674 99.90813446 359.21047974
-21.76942444 99.49904633 360.88174438
-15.83015442 100.80074310 361.84436035
-22.49971008 99.24371338 359.22973633
-22.42726135 99.01537323 359.95346069
-21.35813904 99.11161804 360.40203857
-15.60441589 100.34441376 361.58978271
-21.81959534 99.06821442 358.47418213
-22.01744080 98.62796021 359.47235107
-21.67640686 98.61126709 359.92547607
-21.45274353 98.67881012 360.56268311
-15.58216858 99.82035065 361.56665039
-21.79624939 98.55023956 358.44982910
-12.25444031 101.39038849 356.34509277
-15.35636902 99.36199188 361.31201172
-21.77281189 98.03276062 358.42553711
-21.61027527 97.87555695 359.06057739
-20.90028381 97.68754578 359.87344360
-12.02174377 100.92568207 356.08120728
-15.13053894 98.90269470 361.05728149
-15.52857971 98.24475098 360.61563110
-15.10752869 98.37767029 361.03338623
-20.99238586 97.10615540 358.36917114
-20.84431458 97.02650452 359.05322266
-20.58106995 96.86170197 359.55224609
-14.22492981 99.26814270 355.92483521
-20.23368835 96.69589996 358.33718872
-19.88716125 96.52849579 357.11700439
-20.01359558 96.23806000 358.08111572
-19.86741638 96.15847015 358.76889038
-19.74497986 95.92077637 356.90383911
-19.59648132 95.84167480 357.59255981
-19.45014954 95.76221466 358.28192139
-14.37626553 96.84978485 359.45419312
-12.52735901 97.05145264 359.91180420
-19.01286316 96.15995026 355.33462524
-19.16755676 95.81974792 356.32214355
-19.09455872 95.43713379 355.37023926
-19.14323425 95.29633331 356.29702759
-18.95594788 94.98248291 356.84378052
-19.00727844 94.84191895 357.76797485
-13.71330261 95.98439026 358.70169067
-18.59230042 95.18562317 354.82714844
-18.92063904 94.83431244 356.03753662
-18.78550720 94.38047791 357.51055908
-13.91007996 95.38593292 358.02166748
-12.38371277 95.60712433 358.90176392
-18.44950867 94.57282257 354.61148071
-18.69810486 94.37142181 355.77795410
-18.35072327 94.35440063 356.23580933
-13.96974182 94.70568848 358.04278564
-16.82600403 93.16463470 362.84356689
-18.14393616 94.25733185 354.30264282
-18.47489929 93.90768433 355.51754761
-18.32682800 93.82955170 356.21142578
-18.16712952 93.67263031 356.85629272
-16.77754211 92.70827484 361.92230225
-16.84352112 92.56899261 362.84210205
-18.00144958 93.64244843 354.08648682
-18.45030212 93.38246155 355.49240112
-16.89024353 92.26483917 361.20706177
-17.03639221 91.97880554 362.17199707
-16.82112122 92.04721069 362.81924438
-16.56904602 91.87940979 363.32409668
-10.58308411 94.28633881 358.58132935
-17.82667542 93.03788757 354.75738525
-17.87968445 92.89974213 355.69119263
-17.53236389 92.88214874 356.15042114
-17.18592834 92.86432648 356.61004639
-16.18263245 92.06767273 360.44580078
-16.22657776 91.32724762 362.88668823
-10.56028748 93.75241089 358.55795288
-19.35639954 91.79973602 356.47375488
-17.36305237 92.27834320 356.82147217
-16.64414978 91.27725220 360.92977905
-16.30784607 91.25739288 361.39212036
-10.53684998 93.21843719 358.53390503
-19.13395691 91.33501434 356.21395874
-19.38264465 91.14165497 357.37393188
-16.62174988 90.75370026 360.90686035
-16.56739807 90.52815247 361.64248657
-16.51487732 90.30259705 362.37780762
-16.04975891 90.20356750 363.53192139
-19.11006165 90.81106567 356.18972778
-19.43867493 90.47256470 357.39379883
-15.99440002 90.40357971 360.18753052
-15.75642395 89.87391663 362.35815430
-15.82609558 89.73842621 363.28021240
-18.49107361 90.46032715 355.45938110
-19.10017395 89.91794586 356.94680786
-18.95445251 89.84205627 357.63854980
-11.51448059 92.64955139 352.87680054
-15.97117615 89.87847900 360.16381836
-16.03742981 89.74333191 361.09069824
-15.60240173 89.27229309 363.02847290
-18.66505432 89.87755585 355.66995239
-16.09693909 89.07184601 361.11120605
-15.96305847 88.99432373 361.80526733
-15.37739563 88.80535126 362.77523804
-17.48063660 89.93316650 354.37161255
-18.37684631 89.18708801 356.14987183
-18.32447815 89.04386139 356.93719482
-17.09318542 88.25308990 361.36099243
-17.15879822 88.12082672 362.28298950
-16.14732361 90.27213287 352.06881714
-17.65632629 89.34817505 354.58441162
-17.74525452 88.47740173 357.08911133
-17.07078552 87.73032379 361.33813477
-17.37748718 87.36779785 362.46942139
-16.00117493 89.65008545 351.84738159
-16.25840759 89.45883179 353.03405762
-17.24754333 88.56448364 354.87298584
-16.70155334 87.53965759 360.11578369
-16.84773254 87.26236725 361.08425903
-17.27687073 86.78521729 362.32263184
-15.77226257 89.17564392 351.57916260
-16.03028870 88.98538208 352.76794434
-20.56736755 86.50102997 359.45928955
-16.22267151 86.90310669 360.36618042
-16.48936462 86.71805573 361.52313232
-15.54325867 88.70020294 351.31091309
-20.65312195 85.81942749 358.60437012
-20.70304871 85.69336700 359.52127075
-16.19938660 86.37821198 360.34259033
-16.58894348 86.07914734 361.60626221
-15.51826477 88.16710663 351.28573608
-15.79551697 87.82427979 352.43457031
-20.82356262 85.24669647 358.81079102
-20.67921448 85.17410278 359.49728394
-13.91557312 87.43659973 356.29974365
-16.17674255 85.85314941 360.31976318
-15.84049988 85.83204651 360.78326416
-15.28865147 87.69020081 351.01660156
-15.71553040 87.20750427 352.30145264
-20.79969788 84.72698975 358.78674316
-20.73616028 84.51103973 359.51666260
-15.81721497 85.30702972 360.75967407
-15.05891418 87.21226501 350.74749756
-20.58161926 84.25893402 358.53225708
-13.74592590 86.28082275 356.05715942
-13.89839172 86.00289917 357.04586792
-15.25675964 84.81330109 360.96875000
-20.75196838 83.68728638 358.73870850
-20.60832214 83.61566162 359.42602539
-13.80690002 85.60112000 356.07830811
-13.87416077 85.47203064 357.02151489
-14.82862854 84.39292908 360.48065186
-20.61479187 83.07482147 358.52743530
-20.27626038 83.05434418 358.98489380
-13.64518738 84.99467468 356.76004028
-13.85816956 84.00167084 360.22290039
-20.46040344 82.81904602 357.53973389
-20.11943054 82.79887390 357.99673462
-18.23246765 82.74571228 360.06149292
-13.22068787 84.76074982 355.44021606
-13.20915222 84.56993103 356.25842285
-19.89997864 82.32761383 357.74053955
-19.95191956 82.20653534 358.66275024
-18.34785461 82.29478455 359.34588623
-18.20918274 82.22316742 360.03811646
-12.97825623 84.09046173 355.99453735
-19.67994690 81.85552216 357.48348999
-19.73204041 81.73499298 358.40695190
-18.32456970 81.77175903 359.32247925
-18.26774597 81.55678558 360.05712891
-12.95384216 83.55732727 355.97003174
-19.45979309 81.38238525 357.22634888
-18.10224915 81.29838562 359.06607056
-12.16044617 83.28130341 355.08099365
-18.70042419 80.93679047 357.19384766
-18.21897888 80.84529114 358.34899902
-18.27696228 80.72557831 359.27511597
-12.67396545 83.28591919 350.66915894
-17.99638367 80.37008667 358.09130859
-18.17637634 80.13924408 359.12530518
-18.15922546 79.95728302 359.92443848
-18.11369324 79.91538239 357.37219238
-17.97218323 79.84554291 358.06726074
-17.83305359 79.77545929 358.76290894
-11.15382385 82.20156097 353.13265991
-17.75025940 79.36875916 357.81027222
-17.61000061 79.29915619 358.50555420
-17.86662292 78.91277313 357.08911133
-17.72602844 78.84350586 357.78619385
-17.66960144 78.63103485 358.52493286
-17.61549377 78.41854858 359.26400757
-17.53050232 78.43540192 360.06289673
-12.23020935 80.43264771 355.12585449
-17.64363098 78.43433380 356.83023071
-17.70176697 78.31813049 357.76214600
-17.92781067 77.91652679 358.77767944
-17.59132385 77.89428711 359.23995972
-17.65269470 77.77878571 360.16607666
-12.40821838 79.55712128 356.12054443
-17.61936951 77.90805817 356.80615234
-17.47843933 77.83947754 357.50360107
-17.56785583 77.36985779 359.21661377
-17.62919617 77.25516510 360.14279175
-17.05549622 77.40617371 357.00942993
-17.59825134 77.05622864 358.45416260
-17.54365540 76.84538269 359.19262695
-17.40751648 76.77706909 359.88818359
-12.15245056 78.53698730 355.83206177
-17.00325012 77.23336029 356.19824219
-16.83076477 76.92521667 356.74926758
-17.65791321 76.38867188 358.47341919
-17.52003479 76.32078552 359.16937256
-17.38325500 76.25289917 359.86428833
-10.34336853 79.49996185 348.90335083
-16.80644226 76.39768982 356.72509766
-17.15150452 76.09635925 357.93835449
-17.29747009 75.84102631 358.91275024
-17.44404602 75.58652496 359.88385010
-11.81590271 77.44899750 355.41180420
-5.17266846 79.56299591 352.64483643
-10.50904846 78.75983429 349.03479004
-16.78205872 75.86991882 356.70095825
-17.08924866 75.53757477 357.85101318
-17.27314758 75.31584167 358.88882446
-17.70289612 74.87638092 360.13510132
-16.98847961 74.94569397 357.69946289
-17.04978943 74.83464813 358.63140869
-16.67906189 74.60532379 357.39657593
-17.16755676 74.21617126 358.74588013
-10.03102112 76.76422882 349.21350098
-16.39137268 74.11042023 357.05130005
-16.80204773 73.82596588 358.35006714
-10.42839146 76.12728119 349.68743896
-16.02766418 73.68022156 356.63949585
-16.57801819 73.34230804 358.09170532
-15.51457214 73.37910461 356.09762573
-16.15296936 72.90016937 357.59762573
-15.28742981 72.89160919 355.83511353
-15.72612000 72.45648193 357.10095215
-15.99263000 72.30651855 358.27465820
-14.85713196 72.44556427 355.33322144
-16.10462952 71.84368134 357.55035400
-15.96882629 71.77861786 358.25143433
-15.83467102 71.71337891 358.95239258
-15.74363708 71.29180908 357.99267578
-15.60908508 71.22688293 358.69396973
-15.65299988 70.86855316 357.02966309
-15.38343811 70.73933411 358.43554688
-15.62910461 70.33905792 357.00634766
-15.29121399 70.31536102 357.47265625
-15.15718079 70.25101471 358.17626953
-11.70310974 71.58297729 351.94528198
-15.13261414 69.72173309 358.15228271
-14.99391174 69.48651886 359.66461182
-11.45256042 71.28258514 350.82012939
-11.55146790 70.98070526 351.73059082
-15.17539978 69.35897064 356.48315430
-15.06333923 68.98785400 358.87561035
-15.01850891 68.78358459 359.62033081
-11.21665955 70.78372192 350.54711914
-11.11909485 70.36625671 352.07846069
-14.61030579 68.84338379 356.68954468
-15.19630432 68.21672821 359.83117676
-14.86503601 68.19194794 360.29928589
-10.42018127 70.30189514 350.49905396
-15.29069519 67.90354919 358.26364136
-15.50447083 67.71340942 359.34042358
-15.17228699 67.68869019 359.80804443
-14.84111023 67.66382599 360.27612305
-10.39421082 69.75960541 350.47396851
-10.55802917 69.51063538 351.49017334
-15.20951843 67.32307434 358.14419556
-14.94670105 67.19813538 359.55078125
-14.81715393 67.13560486 360.25299072
-9.73405457 69.33858490 349.70156860
-10.27574158 68.80166626 351.98532104
-15.18473816 66.79360962 358.12026978
-15.05323792 66.73155212 358.82440186
-14.72035217 66.70658875 359.29266357
-14.79316711 66.60727692 360.22982788
-8.45745850 69.28615570 348.32559204
-9.56968689 68.73082733 350.40112305
-14.95854187 66.30096436 357.86056519
-15.02854919 66.20239258 358.80056763
-9.67530823 68.07805634 350.48989868
-9.40760803 68.12355042 351.10119629
-14.93385315 65.77089691 357.83670044
-15.00447083 65.67317200 358.77740479
-14.67231846 65.64808655 359.24642944
-14.34040833 65.62290192 359.71517944
-9.65516663 67.70610046 349.62561035
-14.37269592 65.25154877 358.04577637
-14.24235535 65.19041443 358.75170898
-14.11293030 65.12925720 359.45666504
-9.65934753 66.85460663 351.34558105
-14.14479065 64.75630188 357.78491211
-9.37474060 66.40225983 350.11230469
-9.72453308 66.16870117 351.36639404
-9.59013367 66.10663605 352.09014893
-13.37803555 64.27000427 357.75646973
-7.41983032 66.49669647 347.96389771
-9.06172180 65.73772430 350.59448242
-9.56413269 65.56414795 352.06509399
-13.22480774 63.67716980 358.44204712
-8.34587097 65.65310669 348.99642944
-9.46064758 65.11951447 351.06829834
-10.77439880 64.55568695 353.36215210
-12.79023743 63.21360779 357.94302368
-12.66282654 63.15345001 358.65307617
-12.33119202 63.12758636 359.12570190
-12.00044346 63.10164642 359.59887695
-8.47271729 65.01615143 349.12020874
-8.85667419 64.73840332 350.39657593
-10.74836731 64.01580811 353.33728027
-11.01652527 63.71987152 354.44131470
-10.87709045 63.57713318 355.10806274
-12.26432800 62.88818359 357.39926147
-12.22685242 62.68843079 358.15390015
-11.89448547 62.66245270 358.62731934
-11.77000427 62.60247040 359.33871460
-8.07868958 64.59559631 348.69390869
-8.77101135 64.13972473 350.27032471
-10.60414124 63.36962891 353.11224365
-10.77296352 63.13343811 354.12170410
-10.85185242 63.03867340 355.08398438
-11.94346619 62.52705765 357.09344482
-11.87019253 62.12843704 358.60403442
-11.74571228 62.06884384 359.31549072
-8.26684570 64.01197052 348.92138672
-10.88005066 62.65360260 353.37847900
-10.74772644 62.59398651 354.09759521
-10.61711121 62.53433609 354.81634521
-11.84077454 61.92097855 356.93853760
-11.78248596 61.85049438 357.73147583
-11.84590054 61.59423065 358.58074951
-11.51438904 61.56809998 359.05453491
-6.91976929 62.90389252 355.88763428
-8.35075378 63.17305756 349.82031250
-10.64479065 62.14756775 353.10852051
-10.64418030 61.98334122 353.94036865
-10.38237000 62.02899170 354.54873657
-11.53874207 61.42951965 356.59344482
-11.61433411 61.09265137 358.31863403
-6.67932129 62.39500809 355.61819458
-7.25929260 63.20124817 347.81097412
-7.98762512 62.70257568 349.41049194
-10.10740662 61.81498718 352.54739380
-10.57905579 61.40790176 353.84893799
-12.79548645 60.60400772 357.11453247
-11.38282776 60.59007263 358.05639648
-6.43959045 61.88496017 355.34951782
-7.69465637 63.03344727 344.79727173
-7.32630920 62.50844193 347.83230591
-7.19067383 62.44878769 348.56582642
-10.17424011 61.13243103 352.56832886
-12.77036953 60.06984329 357.09066772
-12.43699646 60.04372025 357.56356812
-7.45046997 62.51683807 344.51281738
-7.52537537 62.42275238 345.50689697
-7.25883484 61.75683212 348.58749390
-7.49467468 61.57563019 349.72171021
-12.87452698 59.59275818 356.35467529
-12.74595642 59.53542328 357.06756592
-12.41249084 59.50930023 357.54049683
-12.08000183 59.48301697 358.01397705
-7.55804443 61.85784531 344.60476685
-7.49734497 61.87145996 345.48034668
-7.75645447 60.99865723 349.11416626
-7.62278748 60.94001007 349.84573364
-12.64430237 59.08869171 356.09118652
-12.72080994 59.00107193 357.04370117
-7.80085754 61.09292221 344.81451416
-7.73001099 60.45066452 349.08917236
-12.36277771 58.91710663 355.02529907
-12.61909485 58.55323792 356.06729126
-12.28401184 58.52705383 356.54043579
-7.27265930 59.96733856 348.55764771
-12.51853943 58.10378647 355.08825684
-12.18190002 58.07753372 355.56158447
-12.05278015 58.02133179 356.27630615
-11.92533875 57.96499634 356.99093628
-10.18128967 57.91812897 358.41305542
-7.00097656 60.23046112 343.93823242
-7.38853455 59.96480942 345.24124146
-7.24877930 59.90723419 345.97750854
-7.11303711 59.36047745 349.26663208
-11.94966125 57.57055664 355.29550171
-11.82078648 57.51457596 356.01153564
-11.15260315 57.46147919 356.96148682
-10.81950378 57.43482971 357.43679810
-10.48805237 57.40796661 357.91342163
-10.15675354 57.38111496 358.38980103
-7.28527832 59.50229263 344.21923828
-6.57157898 59.45183182 345.17999268
-11.50981140 57.09167099 354.78649902
-11.58812046 57.00688553 355.74584961
-11.46125793 56.95122147 356.46270752
-11.12730408 56.92462921 356.93756104
-10.79490662 56.89781570 357.41363525
-7.25706482 58.94941330 344.19271851
-6.90016174 58.92414093 344.67321777
-6.96495056 58.40395737 349.17013550
-11.27687073 56.58214951 354.51956177
-11.14756775 56.52690887 355.23748779
-11.22825623 56.44292831 356.19738770
-11.10264587 56.38761139 356.91442871
-10.76960754 56.36075592 357.38980103
-10.43815613 56.33391190 357.86630249
-10.10765076 56.30680466 358.34344482
-7.01229858 58.42766953 343.90701294
-6.87197876 58.37105942 344.64669800
-6.51597595 58.34562683 345.12771606
-4.59265137 58.56305695 345.65039063
-7.03198242 57.71351624 349.19030762
-10.70567322 56.04503632 354.72738647
-10.99516296 55.93351364 355.93203735
-10.66117859 55.90665817 356.40829468
-10.74494934 55.82354736 357.36663818
-10.41355896 55.79660416 357.84317017
-10.17527771 55.63171005 358.36260986
-6.98402405 57.87409592 343.88061523
-6.84373474 57.81789017 344.62023926
-5.12309265 57.83291626 345.29116821
-4.98760986 57.77626419 346.03305054
-7.05335999 57.09382629 349.18881226
-10.68022156 55.50548935 354.70343018
-10.96974182 55.39536667 355.90817261
-10.63572693 55.36849976 356.38439941
-6.38153076 57.32496262 344.07611084
-6.02467346 57.29922104 344.55789185
-5.09481812 57.27785110 345.26452637
-4.96003723 57.22164154 346.00717163
-7.16949463 56.33364868 349.23287964
-7.03831482 56.27814102 349.96646118
-10.40162659 54.85745239 356.11849976
-10.27790833 54.80318069 356.83795166
-6.13557434 56.80026627 343.78994751
-5.99707031 56.74469376 344.53213501
-5.06723022 56.72262573 345.23873901
-4.93244934 56.66680908 345.98141479
-6.30253601 56.15219498 348.35400391
-7.01171875 55.72956467 349.94158936
-10.16743469 54.34529495 355.85256958
-10.25248718 54.26472092 356.81414795
-9.26277161 54.12588501 357.32998657
-5.03955078 56.16720200 345.21289063
-4.90486145 56.11178207 345.95559692
-5.52479553 55.82849121 347.51464844
-6.55361938 55.23686218 349.41162109
