-24.11242867 85.42262268 343.33319092
-18.54306221 85.93500519 346.47457886
-18.37812233 85.86413574 347.17910767
-18.01519203 85.84830475 347.63644409
-12.50285053 86.68434906 348.25195313
-12.19755459 86.53633881 349.68402100
-24.46433640 84.78797913 343.79837036
-20.49329948 85.23861694 345.23779297
-20.48155022 85.08433533 346.11929321
-18.79618645 85.20037842 346.74337769
-17.98676109 85.31533051 347.60952759
-12.47490120 86.14419556 348.22552490
-24.43539238 84.26073456 343.77102661
-20.70400047 84.47674561 345.43960571
-20.53390694 84.40789032 346.13955688
-20.36601067 84.33869934 346.84002686
-17.95823860 84.78224182 347.58267212
-12.44679737 85.60397339 348.19903564
-24.29470634 83.64203644 343.54376221
-24.03744888 83.71915436 344.19027710
-20.67499352 83.94570160 345.41207886
-20.50559998 83.87710571 346.11270142
-12.41878510 85.06365204 348.17254639
-12.05746460 85.04602051 348.63931274
-24.34438324 82.97060394 343.56277466
-24.00783539 83.19171143 344.16213989
-20.69722939 83.59748840 344.56884766
-20.64592361 83.41461182 345.38455200
-20.47656250 83.34627533 346.08526611
-19.94564438 83.26158142 347.24032593
-11.97391796 84.63300323 347.64392090
-11.66959572 84.48742676 349.08074951
-23.58172607 82.88545227 342.69705200
-23.97883034 82.66406250 344.13488770
-20.59227562 83.00352478 344.40780640
-20.61691284 82.88337708 345.35699463
-20.25160217 82.86745453 345.81091309
-19.91718483 82.73081970 347.21359253
-11.94584370 84.09147644 347.61746216
-12.00195885 83.96471405 348.58715820
-23.86092949 82.19197083 343.03158569
-23.83795547 82.04375458 343.90762329
-20.39167976 82.40382385 345.08154297
-20.22317314 82.33585358 345.78411865
-19.85859299 82.31969452 346.23892212
-19.68107986 82.17192078 346.88961792
-15.23324966 82.77278137 348.78802490
-23.68351746 81.53903961 342.73690796
-23.50512886 81.47333527 343.43249512
-19.96988487 81.97459412 344.55718994
-15.65042686 82.10725403 348.34747314
-23.65310860 81.00984192 342.70794678
-23.47542191 80.94447327 343.40432739
-19.94066048 81.44163513 344.52972412
-19.77114487 81.37429047 345.23321533
-19.40662766 81.35787201 345.68927002
-16.06687164 81.44258118 347.90628052
-15.90876865 81.37327576 348.61544800
-15.39483833 81.28554535 349.78735352
-19.71481323 80.95906067 344.25326538
-19.74271584 80.84152985 345.20645142
-19.37740135 80.82495117 345.66177368
-19.09608078 80.66313171 346.16525269
-16.03898621 80.90676117 347.88012695
-15.88082314 80.83786011 348.58929443
-15.36692333 80.75031281 349.76126099
-25.26349640 79.38838196 343.78155518
-25.46282959 79.22775269 344.96258545
-25.36682320 79.02197266 345.69998169
-15.85287762 80.30232239 348.56320190
-14.93266773 80.31588745 349.24154663
-25.04451752 78.91017914 343.50711060
-25.41705704 78.35583496 345.71899414
-15.41886616 79.86681366 348.04037476
-14.90462971 79.77955627 349.21539307
-25.01478195 78.38320160 343.47918701
-24.83749390 78.31949615 344.17260742
-17.52333260 79.10919952 346.96179199
-15.59361553 79.28037262 348.26266479
-15.23467636 79.26184082 348.72573853
-24.98501396 77.85612488 343.45123291
-24.88845634 77.65119934 344.19204712
-24.98159981 77.39965057 345.17623901
-17.77868843 78.38092804 347.23025513
-24.76320076 76.92010498 344.90386963
-24.58838654 76.85694885 345.59625244
-17.75004387 77.84676361 347.20355225
-24.92280197 76.34794617 345.12121582
-17.39984131 77.61848450 345.92456055
-17.72130394 77.31245422 347.17681885
-16.84386253 77.20883942 348.80508423
-24.36020851 76.15229797 343.52645874
-24.70366859 75.86737823 344.84820557
-24.52952576 75.80486298 345.54144287
-17.65544319 76.89083862 346.19430542
-17.69259834 76.77811432 347.15011597
-16.81500244 76.67457581 348.77853394
-24.29529190 75.43079376 344.32980347
-18.39281082 75.92833710 347.00653076
-17.86323547 76.19704437 347.37124634
-17.39126968 75.93659210 348.51837158
-24.07548332 74.94788361 344.05584717
-23.90149307 74.88576508 344.75170898
-18.36419678 75.39463806 346.97973633
-17.48568726 75.29170227 348.60498047
-23.85579872 74.46400452 343.78167725
-18.33539581 74.86096954 346.95312500
-14.13923454 75.15510559 350.03057861
-14.57029915 74.70845032 351.32745361
-17.98428154 74.48265076 346.56356812
-17.58737946 74.28855896 347.84527588
-17.22932434 74.26908875 348.30593872
-14.71736431 74.41546631 349.76574707
-14.69242764 74.23849487 350.59130859
-14.54207897 74.17292023 351.30154419
-14.39410973 74.10721588 352.01239014
-22.49837494 73.84552002 343.09005737
-17.87978172 73.88205719 346.40301514
-17.91745949 73.77391815 347.35861206
-17.55854988 73.75438690 347.81863403
-14.81492233 73.76773834 349.85317993
-14.66423702 73.70246124 350.56524658
-14.51468182 73.63722992 351.27636719
-14.36658955 73.57182312 351.98721313
-22.65062904 73.17510223 343.24969482
-16.18820381 74.86993408 340.96386719
-17.85091972 73.34700775 346.37628174
-17.68922234 73.28359985 347.08383179
-17.52962875 73.21999359 347.79208374
-14.98995304 73.18704987 350.07443237
-14.63601589 73.16645050 350.53927612
-14.48710060 73.10145569 351.25106812
-14.33910179 73.03642273 351.96200562
-22.79664803 72.45792389 343.37817383
-22.62341881 72.39704132 344.07757568
-17.62246895 72.85555267 346.10034180
-17.66026878 72.74881744 347.05734253
-17.50070763 72.68561554 347.76556396
-14.96176243 72.65099335 350.04843140
-22.59319115 71.86664581 344.04980469
-24.27659988 70.91426086 346.89486694
-24.10734177 70.85409546 347.58758545
-23.93957901 70.79382324 348.28039551
-16.30119514 73.49703217 341.00610352
-17.59284401 72.31979370 346.07299805
-17.43187904 72.25699615 346.78262329
-17.07226563 72.23716736 347.24334717
-14.88234425 72.22196198 349.06314087
-14.93348026 72.11478424 350.02252197
-21.79227257 71.50363159 343.02801514
-24.24665070 70.38847351 346.86715698
-24.07803345 70.32856750 347.56072998
-23.91033173 70.26857758 348.25344849
-23.55517960 70.24889374 348.70565796
-14.85406017 71.68482208 349.03713989
-14.90513611 71.57845306 349.99667358
-14.63940239 71.41420746 350.50863647
-14.49051952 71.35039520 351.22045898
-21.76201057 70.97114563 343.00009155
-24.21730995 69.86243439 346.84033203
-24.04542160 69.46611023 348.31765747
-24.06825638 69.36692047 349.25073242
-14.62218666 71.18994141 348.76269531
-14.54906940 70.67153931 351.24011230
-23.14228439 70.11308289 343.80996704
-14.59384155 70.65209961 348.73675537
-14.31814098 70.17701721 350.96908569
-23.19431496 69.44348907 343.82839966
-24.42953300 68.63296509 347.07495117
-24.34320831 68.43601227 347.81341553
-24.36452103 68.33846283 348.74664307
-24.19929314 68.27961731 349.43844604
-14.76823330 70.07269287 348.95877075
-14.60811234 69.92864990 349.62094116
-14.64199638 69.66221619 350.47723389
-23.35480309 68.87402344 344.04776001
-24.48193359 67.96928406 347.09335327
-24.31390190 67.91086578 347.78646851
-23.98173714 67.79368591 349.17187500
-18.70307732 69.41677094 344.65368652
-14.35715008 69.26915741 349.24340820
-23.30696106 68.44180298 343.07354736
-23.32530594 68.34429169 344.02090454
-24.26435089 67.48157501 346.82394409
-24.28456306 67.38553619 347.75973511
-23.92895317 67.36521149 348.21096802
-23.95243073 67.26904297 349.14508057
-23.08568192 67.94992065 342.79751587
-23.29492569 67.81440735 343.99319458
-24.23424721 66.95552063 346.79638672
-24.25522423 66.86019897 347.73294067
-23.89955139 66.83968353 348.18426514
-23.62127686 66.96976471 344.30529785
-23.09336472 67.22666931 344.66473389
-24.20490837 66.42916870 346.76962280
-24.03638649 66.37174225 347.46319580
-23.87018394 66.31404114 348.15747070
-23.70550728 66.25637817 348.85159302
-23.95346451 66.46045685 343.82669067
-23.97114182 66.36603546 344.77072144
-23.81821823 65.88214874 347.19415283
-23.84060097 65.78829956 348.13082886
-23.67601395 65.73093414 348.82492065
-23.92311478 65.93129730 343.79922485
-23.75077438 65.87430573 344.49658203
-23.78875732 65.35550690 347.16735840
-23.43232155 65.33469391 347.61938477
-21.27959251 65.30113220 349.40603638
-23.89279366 65.40190887 343.77154541
-23.72036552 65.34533691 344.46917725
-23.21244240 64.84358978 347.34899902
-21.25070953 64.77274323 349.37994385
-23.49923706 64.85209656 344.19427490
-23.18288803 64.31613922 347.32223511
-22.47315979 64.27358246 348.23013306
-21.22179222 64.24424744 349.35391235
-22.90091515 64.76084137 342.62969971
-23.27877617 64.35781860 343.92010498
-21.84121513 63.94254684 346.52749634
-21.19214630 63.71564102 349.32714844
-23.03904915 63.95356369 342.69610596
-23.05752182 63.86255646 343.64517212
-23.24564362 63.49743652 344.68463135
-23.31389046 63.22631073 347.51263428
-21.81150627 63.41240692 346.50067139
-21.16307831 63.18682861 349.30108643
-23.00778198 63.42194748 342.66796875
-23.02695656 63.33170700 343.61770630
-22.35670853 62.77954865 347.20812988
-21.11877060 62.49781418 349.17294312
-23.07975197 62.66395569 343.63552856
-23.18478966 62.43777847 344.62957764
-23.20686913 62.34882355 345.57537842
-23.13404274 61.99607468 343.65463257
-23.53503227 61.84112549 345.09530640
-23.17642784 61.81964493 345.54791260
-23.67387390 61.36627579 344.36898804
-23.58880615 61.17593384 345.11370850
-23.38463020 61.08724213 345.74475098
-22.27326012 60.86507034 347.91772461
-20.74520683 60.99932480 348.75482178
-23.28421974 60.48912430 345.58459473
-23.42272377 60.33871078 344.06732178
-23.25432777 59.95988083 345.55801392
-21.47674751 59.84818268 347.83242798
-22.92616272 59.68233109 344.29144287
-23.22379494 59.43059921 345.53063965
-22.51067543 59.38603973 346.43884277
-21.63062096 59.61273193 347.25930786
-22.98075867 59.01586914 344.31045532
-22.81257439 58.96272659 345.01110840
-22.83624458 58.87882233 345.95715332
-22.48011208 58.85636902 346.41149902
-21.03196716 58.84984970 347.28973389
-22.61522865 58.37947464 345.68438721
-22.45012665 58.32654190 346.38488770
-14.69734955 59.09202194 347.77523804
-22.72856712 57.98405457 344.00799561
-22.55995560 57.93161392 344.70916748
-22.39351082 57.87906265 345.41098022
-20.77834129 57.81754303 346.99014282
-19.21280479 57.67090225 349.53186035
-19.25460243 57.58749390 350.47994995
-23.43738747 57.41598892 344.02157593
-21.98027420 57.40719986 344.89031982
-22.00666046 57.32537842 345.83941650
-20.74829483 57.28570938 346.96343994
-19.37852097 57.10960388 349.74972534
-19.22516632 57.05649185 350.45413208
-19.07367134 57.00335693 351.15820313
-23.68136978 56.72207260 344.28707886
-21.94943237 56.87533188 344.86300659
-21.78381348 56.82332611 345.56539917
-20.17062378 56.75952148 347.14950562
-19.50393295 56.63077927 349.01931763
-19.43616867 56.44274902 349.76840210
-19.28296661 56.39003754 350.47277832
-19.13065147 56.33744049 351.17626953
-23.73548126 56.05785751 344.30529785
-21.56099319 56.32027435 345.29150391
-20.10631371 56.30775070 346.17007446
-20.14048195 56.22697830 347.12286377
-19.78758049 56.20338440 347.58242798
-19.49393845 55.77608490 349.78710938
-19.53543282 55.69563293 350.73422241
-23.70396996 55.52785110 344.27728271
-20.43139076 55.79771805 345.68444824
-20.07614326 55.77422714 346.14343262
-19.91561699 55.72248840 346.84930420
-19.95192337 55.64247894 347.80154419
-19.44447708 55.56674957 348.96685791
-19.65876961 55.21703720 350.00448608
-19.70023727 55.13756943 350.95028687
-20.75732422 55.28773880 345.19943237
-20.40115738 55.26418304 345.65786743
-20.04523849 55.24064636 346.11618042
-19.88547516 55.18915558 346.82275391
-20.04446411 55.01092529 347.88677979
-19.85246277 54.92359543 348.52563477
-19.50203323 54.89958572 348.98556519
-19.43451500 54.71325302 349.73458862
-19.28216934 54.66169357 350.43963623
-20.01500511 54.70681000 346.08959961
-19.66045570 54.68306732 346.54916382
-20.06614876 54.30810165 347.83865356
-20.29709435 54.20340729 349.03259277
-19.40513802 54.18167496 349.70870972
-19.25267029 54.13040161 350.41390991
-22.70650101 53.91648483 344.85687256
-19.98464966 54.17288589 346.06295776
-19.91866302 53.64798355 349.46667480
-19.57058144 53.62356949 349.92703247
-19.31080627 53.46484375 350.43222046
-22.48441315 53.41126251 344.58197021
-19.46977997 52.63628387 348.92544556
-21.24270439 51.83633423 348.34274292
-19.44019127 52.10377121 348.89968872
-19.09140587 52.07906342 349.36077881
-19.25827408 51.86771774 345.05215454
-20.67091370 51.30530930 348.53121948
-20.64062309 50.77417755 348.50482178
-18.01587105 51.50418854 342.84335327
-20.01157188 50.62769318 346.94735718
-20.41721725 50.26622391 348.23370361
-20.19326210 49.75729752 347.96176147
-17.19585419 50.44776917 342.74432373
-19.81406593 49.19966507 348.39648438
-17.52425385 49.93144989 342.25354004
-17.16426849 49.90670013 342.71707153
-19.49702072 48.92811584 347.19335938
-19.58952713 48.68895340 348.12484741
-17.13271713 49.36553955 342.68966675
-18.34180832 48.91378784 345.01004028
-18.27453613 48.73289871 345.76889038
-22.38325119 47.44866180 346.14337158
-22.10123825 47.49692535 346.73492432
-16.79351044 48.73479843 342.20068359
-16.83287239 48.66487885 343.17300415
-18.33248520 48.06263733 345.78707886
-22.70455170 46.94285202 345.66027832
-22.35213661 46.91758728 346.11645508
-22.19131660 46.87182236 346.81896973
-16.49384880 48.03297806 342.68502808
-22.67337418 46.41166687 345.63336182
-22.32080841 46.38630295 346.08963013
-22.16078186 46.34088135 346.79281616
-16.46156311 47.49086761 342.65701294
-16.54669762 47.35482788 344.60122681
-22.61448097 45.94491196 344.65597534
-22.45124817 45.89989090 345.35946655
-22.58315277 45.41273880 344.62915039
-22.41991806 45.36800766 345.33264160
-22.25900841 45.32339859 346.03671265
-22.09818459 45.27872467 346.73928833
-21.20838547 45.24608994 347.41116333
-22.38858986 44.83601761 345.30587769
-22.31537819 44.66173172 346.05438232
-21.96446037 44.63584900 346.51174927
-21.17772675 44.71415329 347.38513184
-21.72058296 43.29111481 344.48202515
-21.83893585 43.10086823 345.48001099
-21.48795319 43.07472992 345.93887329
-21.24092865 43.16106796 346.59985352
-18.84577179 42.60639954 347.18383789
-18.96857643 42.11374664 346.44662476
-18.81486511 42.07076263 347.15768433
-20.65853691 41.48041153 345.82336426
-18.93290329 41.49621582 346.36718750
-18.78398895 41.53503418 347.13159180
-21.45009041 40.81322479 345.87600708
-21.29213905 40.77144241 346.58160400
-21.76852036 40.30673981 345.39007568
-21.41857719 40.27994537 345.84924316
-21.06948471 40.25321198 346.30914307
-20.72027397 40.22637558 346.76885986
-21.54519653 39.78772736 345.11532593
-21.03778839 39.71972656 346.28250122
-20.68946075 39.69282913 346.74291992
-21.51352882 39.25385666 345.08868408
-21.35524178 39.21308899 345.79611206
-20.65779305 39.15915298 346.71627808
-21.29001999 38.73322678 344.81396484
-21.32354355 38.67949677 345.76953125
-20.43333817 38.63861847 346.44244385
-20.84116554 37.68888474 344.26190186
-20.87509155 37.63672638 345.21990967
-20.52593803 37.60941696 345.68109131
-19.82940292 37.55469513 346.60452271
-20.80861282 37.15316391 344.23461914
-20.64626122 37.03265762 344.89099121
-20.49414635 37.07443237 345.65454102
-19.40947151 37.04339600 346.08166504
-19.37755585 36.50720215 346.05508423
-19.65571213 36.04828262 344.60440063
-16.36435127 36.35971069 339.81875610
-19.62367630 35.51100540 344.57785034
-16.82306671 35.66234970 340.35272217
-17.61185455 34.78087234 342.16253662
-18.51293182 34.35235596 345.91564941
-19.26828194 33.74368286 345.00463867
-18.18109131 33.70562744 345.43356323
-19.28779411 33.12475967 344.05783081
-19.22219086 32.04789734 344.00335693
-18.23663902 32.12518692 344.63699341
-17.99254227 32.21591187 345.30941772
-17.04997635 32.08381271 341.51473999
-17.40200043 31.27843285 341.83422852
-17.13999367 31.03139496 340.73739624
-17.64261055 30.39910889 343.84585571
-17.49425125 30.44623375 344.61871338
-17.20035362 30.36004829 340.75592041
-17.13788795 30.19829559 341.52420044
-17.37910461 30.15130234 342.75592041
-17.26019287 29.68905449 340.77365112
-17.10398102 29.65452957 341.49624634
-17.34593391 29.60888290 342.72863770
-17.07071686 29.11062050 341.46899414
-17.56901550 28.89517403 342.93063354
-16.35757446 28.85325813 344.14984131
-10.87036705 29.65065575 335.99307251
-17.16269684 28.20515251 344.20477295
-17.00406647 28.02237892 341.41445923
-11.03403378 28.83470726 336.06213379
-10.16932583 28.99542618 337.92712402
-17.55417252 27.22005844 341.98852539
-17.59756851 27.18391800 342.96374512
-11.16277218 28.36386681 337.25909424
-11.31680298 28.19664383 338.31204224
-10.80953503 28.13367271 339.52822876
-17.32301521 26.68004227 341.70571899
-17.56433487 26.64179611 342.93664551
-11.17632675 27.80099869 336.32806396
-11.22674847 27.67912865 337.27865601
-11.28309917 27.64183807 338.28439331
-17.68401337 26.13142967 342.18850708
-17.53101158 26.09947586 342.90945435
-11.13773060 27.15979385 336.24264526
-11.19218922 27.12337685 337.25033569
-11.45695877 27.08351517 338.52096558
-17.25554276 25.59275436 341.65078735
-11.31116009 26.60000420 336.48098755
-11.40087509 26.41219711 337.43856812
-11.52118111 26.40127373 338.54058838
-11.67616367 26.23863411 339.58901978
-17.22215462 25.04883957 341.62368774
-17.26729202 25.01621819 342.60171509
-11.52837753 25.75350761 337.55468750
-11.79171658 25.71710968 338.82293701
-11.84920311 25.68313217 339.82379150
-17.34323692 24.40523720 341.73474121
-17.43161774 24.47205734 342.82901001
-11.49397182 25.19826698 337.52630615
-11.75722122 25.16336823 338.79473877
-11.66719246 24.64163208 337.76373291
-11.51638031 24.61053467 338.50357056
-11.42534256 24.08742142 337.47073364
-11.48249435 24.05603218 338.47607422
-17.08796501 22.87225723 341.51565552
-16.92652130 22.59508705 342.07254028
-16.22982216 22.53486061 343.01092529
-11.89682961 23.34953117 338.92553711
-17.24262810 22.08119202 341.57717896
-16.89301300 22.05096436 342.04550171
-16.19643402 21.99063873 342.98385620
-12.02430725 22.69511414 339.04077148
-17.20896721 21.53707695 341.55020142
-16.85944176 21.50674057 342.01855469
-16.16298676 21.44632721 342.95672607
-11.99032974 22.14160538 339.01345825
-12.04852390 22.11351585 340.01391602
-16.97691727 20.99082375 341.26641846
-16.82593155 20.96242523 341.99151611
-11.74945545 21.58647919 338.72210693
-11.80795574 21.55932617 339.72387695
-16.94328690 20.44590378 341.23947144
-16.98983383 20.42055321 342.21945190
-16.84089470 20.39271545 342.94387817
-11.92176628 21.03435707 338.95788574
-11.56799603 21.00388145 339.43447876
-17.03894424 19.82042313 341.32778931
-17.24901390 19.75735474 342.49221802
-12.34104347 20.38612366 338.50140381
-12.15655708 20.31578064 339.16772461
-17.30995941 19.09185791 342.50930786
-12.40502453 19.70783997 338.52011108
-12.66698074 19.68677521 339.78247070
-17.27632904 18.54844093 342.48245239
-12.57623959 19.15795135 338.75579834
-12.63306522 19.13466454 339.75524902
-16.99839783 18.02182198 341.22030640
-17.24266815 18.00491714 342.45559692
-12.54146957 18.60480118 338.72778320
-16.96403503 17.47686005 341.19268799
-17.20891571 17.46139717 342.42874146
-12.50676060 18.05145454 338.69979858
-17.12784576 16.93732643 341.42233276
-17.17528343 16.91767502 342.40188599
-13.07906246 17.26197815 339.28964233
-17.05945206 15.84773922 341.36801147
-13.01031685 16.15762711 339.23458862
-17.12137413 15.18239498 341.38555908
-17.16967010 15.16548443 342.36596680
-17.18253517 14.51740646 341.40240479
-17.23092270 14.50149345 342.38287354
-12.94129753 15.05296040 339.17974854
-17.19717026 13.95767021 342.35607910
-13.10456085 14.25659466 339.24365234
-17.11404991 13.42781734 341.34826660
-16.96584702 13.40501308 342.07379150
-13.47749901 13.72139931 339.73959351
-17.08017159 12.88279247 341.32156372
-16.93194008 12.86048698 342.04711914
-13.64591408 13.17903042 339.97296143
-16.69979095 12.30628490 341.76419067
-13.61178684 12.62812042 339.94592285
-17.01144409 11.79260063 341.26748657
-16.97738266 11.24728107 341.24087524
-16.63188553 11.21564484 341.71075439
-13.94243526 11.29588032 340.24206543
-16.94335365 10.70185947 341.21435547
-16.69417381 10.55169296 341.72805786
-13.70567131 10.73442459 339.95468140
-16.75594711 9.88801384 341.74441528
-16.72194672 9.34278774 341.71780396
-16.68791962 8.79740906 341.69110107
-16.74052811 8.79096889 342.67370605
-16.65385818 8.25197220 341.66455078
-16.70652962 8.24648571 342.64712524
-16.61967659 7.70643997 341.63803101
-16.67247009 7.70190048 342.62060547
-16.40717125 6.59769249 342.31265259
-16.61412048 5.95259857 341.60189819
-16.43553925 5.89176512 342.25775146
-16.67629242 5.29046297 341.61804199
-16.53227615 5.27396774 342.34564209
-16.64204979 4.74484873 341.59161377
-16.49809456 4.72882509 342.31906128
-16.54068756 4.11080551 341.42257690
-16.59431267 4.11206913 342.40615845
-16.78620338 123.67072296 348.92089844
-13.76180267 123.30713654 349.73300171
-14.35162354 122.74230194 349.63082886
-13.71703339 122.66001892 350.03311157
-14.94144344 122.17743683 349.52856445
-14.33684826 122.18916321 349.58636475
-13.67220497 122.01384735 350.33319092
-16.77440643 121.68060303 348.97314453
-14.95821762 121.71720886 349.14059448
-16.75978470 121.12744141 348.92864990
-14.91210842 121.07205963 349.44076538
-16.74516487 120.57530212 348.88430786
-15.50214100 120.50714874 349.33950806
-14.91445065 120.35347748 349.49057007
-16.73041916 120.02217102 348.83993530
-15.55134869 120.13694000 348.60592651
-14.91682339 119.63485718 349.54040527
-14.31241035 119.64546204 349.60025024
-17.35514259 119.54696655 348.39703369
-14.90207958 119.08165741 349.49703979
-17.34033775 118.99382019 348.35260010
-16.68451881 118.66053009 349.18902588
-15.53897572 118.86416626 348.61233521
-17.39338684 118.61971283 347.61685181
-17.34474564 117.97561646 347.91702271
-17.36377525 117.51049805 347.52682495
-18.02605247 117.12138367 346.73611450
-17.29814339 116.61499786 348.26617432
-18.01121521 116.56532288 346.69049072
-17.33403969 116.40128326 347.43679810
-15.45348454 115.42492676 349.36447144
-17.99628448 116.01022339 346.64492798
-17.28555870 115.34319305 348.27252197
-17.91168213 114.86502838 347.82849121
-17.86206818 114.22495270 348.12884521
-17.18792152 114.06410980 348.87139893
-15.40900993 113.76643372 349.23226929
-15.99858761 113.20464325 349.12918091
-17.24562836 112.52121735 347.88211060
-17.12935638 111.44384003 349.22467041
-17.14841080 110.97354126 348.83718872
-17.20186996 110.58513641 348.10546875
-15.44938564 110.77638245 347.58819580
-14.84246635 110.78404999 347.64773560
-14.17262173 110.62650299 348.40051270
-17.01865959 109.22023010 350.30508423
-15.46715546 110.30335236 347.19653320
-14.76317787 110.06379700 348.29541016
-17.00376701 108.67012024 350.26083374
-15.47598839 109.66472626 347.10202026
-18.42516708 108.51177216 347.12493896
-17.61078072 107.63883209 349.77331543
-16.99232101 107.40731812 350.26678467
-16.37538338 107.17479706 350.76031494
-15.74111462 107.10368347 351.16024780
-18.37446022 107.87673950 347.42462158
-16.99588966 106.69563293 350.31811523
-16.39385414 106.70223999 350.37664795
-15.72609901 106.55354309 351.11602783
-17.65000725 106.69203186 349.00097656
-16.37889671 106.15110016 350.33239746
-15.77683163 106.15862274 350.39294434
-18.87953377 106.20192719 348.50308228
-17.61890221 105.90158844 349.39456177
-17.03441238 105.74771118 349.54760742
-16.36381912 105.59990692 350.28903198
-18.86442375 105.64885712 348.45764160
-17.62265396 105.18887329 349.44573975
-17.01930428 105.19557953 349.50329590
-16.38234901 105.12550354 349.90328979
-20.32285500 106.02101898 345.35305786
-19.63856125 105.87320709 346.09823608
-18.88551331 105.17252350 348.06982422
-17.60751343 104.63671875 349.40139771
-16.40084648 104.65003204 349.51846313
-20.26988983 105.38600159 345.65371704
-19.62329483 105.31714630 346.05261230
-18.87031364 104.61945343 348.02435303
-18.23069954 104.28587341 348.77972412
-17.59246635 104.08464050 349.35607910
-20.25468445 104.82893372 345.60809326
-19.60812187 104.76109314 346.00701904
-18.25200272 103.67617798 348.57113647
-17.54244232 103.45786285 349.65219116
-18.87610817 103.58705902 347.59091187
-17.59719658 103.05513763 348.92474365
-18.87998009 102.87236023 347.64199829
-18.25755501 102.64478302 348.13769531
-17.61700249 102.57675934 348.53781128
-19.04569244 103.08841705 345.32513428
-18.27809334 102.16546631 347.74963379
-17.60170937 102.02364349 348.49334717
-19.04971123 102.36961365 345.37802124
-17.62166786 101.54335785 348.10525513
-20.17813873 101.64938354 345.91949463
-19.45948219 101.04355621 347.54766846
-19.03444481 101.81253815 345.33227539
-17.60637283 100.98928833 348.05978394
-19.44440079 100.48956299 347.50122070
-17.66179466 100.57985687 347.32684326
-19.42910767 99.93447876 347.45568848
-9.84503269 99.82540131 347.98825073
-9.21243286 99.75501251 348.40835571
-10.40589809 99.19355011 348.21908569
-9.16923618 99.12495422 348.71343994
-20.64891624 98.88415527 346.91299438
-19.39821434 98.82566071 347.36462402
-18.71920967 98.68955231 348.10763550
-11.02445030 98.70581055 347.75732422
-10.39029503 98.63630676 348.17642212
-9.78061581 98.40599060 348.69519043
-9.14929676 98.33608246 349.11532593
-20.53856277 97.96080017 347.99252319
-18.74356461 97.81949615 348.25662231
-11.64458656 98.21702576 347.29547119
-11.00887680 98.14805603 347.71463013
-10.39196301 97.68756104 348.67800903
-9.78823566 97.68891144 348.75119019
-9.10195541 97.47889709 349.86026001
-20.54259300 97.24997711 348.04385376
-18.72814751 97.26583099 348.21118164
-14.17353058 98.32370758 345.03619385
-13.49954891 98.18447113 345.80203247
-12.81033611 97.58353424 347.46105957
-11.62892246 97.65880585 347.25271606
-10.99330330 97.59019470 347.67086792
-9.68812943 96.92276001 349.74252319
-9.05873585 96.85371399 350.16265869
-7.88321304 96.92417908 349.97311401
-20.56538200 96.76548767 347.65658569
-18.71270370 96.71217346 348.16577148
-14.12529755 97.69218445 345.34216309
-13.48385143 97.62459564 345.75823975
-12.81255913 97.48627472 346.52325439
-11.61340904 97.10050964 347.20901489
-10.98883820 96.77245331 347.99105835
-10.30320263 96.43572235 349.28170776
-20.55006027 96.21164703 347.61010742
-18.69722557 96.15829468 348.12026978
-14.07688236 97.06172180 345.64715576
-13.49064541 96.90454865 345.81405640
-12.84175301 96.60741425 346.67883301
-11.62783432 96.61172485 346.81729126
-10.94915676 96.01643372 348.47583008
-10.28766155 95.87986755 349.23907471
-9.68494034 95.88064575 349.31332397
-20.61138916 95.79370880 346.87783813
-13.49750042 96.18466949 345.86987305
-12.82605743 96.04873657 346.63510132
-12.21903706 96.05084229 346.70330811
-11.61213779 96.05274200 346.77346802
-10.87471867 95.32319641 349.12322998
-10.29543686 95.16508484 349.29522705
-9.68200588 95.06741333 349.63275146
-9.05911636 94.87115479 350.23257446
-20.55740356 95.17112732 347.17517090
-19.91359138 95.10867310 347.57354736
-19.29144859 94.88884735 348.07070923
-12.20337105 95.49188995 346.65951538
-11.58954525 95.26532745 347.17837524
-10.30345726 94.45050812 349.35238647
-9.67284489 94.38350677 349.77075195
-21.22620010 94.74538422 346.38830566
-20.54189301 94.61643982 347.12963867
-19.29636192 94.17830658 348.12210083
-14.07456112 95.06290436 345.71401978
-13.46604538 95.06520081 345.78118896
-11.56667805 94.47987366 347.58248901
-9.68550014 93.89494324 349.38400269
-21.21084595 94.19003296 346.34078979
-20.52620316 94.06175995 347.08312988
-14.05880165 94.50312805 345.67022705
-13.45025635 94.50537872 345.73638916
-12.17170429 94.37353516 346.57186890
-11.55104446 93.92189789 347.53875732
-10.86294746 93.59441376 348.82989502
-10.27216244 93.33909607 349.26626587
-9.66986752 93.33898926 349.34143066
-21.15591049 93.56820679 346.63919067
-20.53114700 93.35027313 347.13543701
-19.86995125 93.06694031 347.97381592
-14.04295254 93.94331360 345.62530518
-12.82601357 93.94715881 345.76068115
-12.17923164 93.65520477 346.62884521
-11.59598255 93.49712372 346.79974365
-10.25649929 92.78318024 349.22363281
-9.65426540 92.78295898 349.29876709
-9.05196953 92.78254700 349.37597656
-7.84829092 92.78086090 349.53222656
-20.53611946 92.63897705 347.18771362
-19.89233971 92.57802582 347.58615112
-19.24971962 92.51680756 347.98568726
-14.70272255 93.51464844 344.81509399
-14.02713394 93.38330841 345.58044434
-12.81019497 93.38685608 345.71578979
-12.18694210 92.93712616 346.68472290
-10.26985359 92.29254150 348.83581543
-9.63841915 92.22682953 349.25613403
-7.80586767 92.15894318 349.83486938
-21.16376877 92.52249146 346.20193481
-19.87674141 92.02372742 347.53967285
-14.68690205 92.95365906 344.77014160
-14.07707691 92.95578003 344.83532715
-13.40273762 92.82499695 345.60272217
-12.79431343 92.82647705 345.67193604
-10.31249905 91.86573029 348.10263062
-21.77593613 91.80568695 346.20184326
-21.14807510 91.96640778 346.15527344
-20.56154442 91.81412506 346.30950928
-19.86102104 91.46917725 347.49414063
-19.21846008 91.40859985 347.89471436
-17.40507317 91.41719055 348.07354736
-13.41023254 92.10594940 345.65966797
-12.78859806 92.01075745 345.99520874
-10.20920467 91.11489105 349.09481812
-9.57847309 91.05007935 349.51525879
-19.95981026 91.10544586 346.41699219
-19.27755356 90.98131561 347.16275024
-18.06623840 90.98709869 347.28128052
-17.38932037 90.86227417 348.02902222
-12.77793789 91.32352448 346.13394165
-10.78499413 90.11852264 349.86245728
-10.19335747 90.55857086 349.05212402
-9.59100056 90.55780029 349.12829590
-9.03845215 90.24154663 349.40612793
-23.22896576 91.66593170 342.93032837
-22.61661530 91.67123413 342.97958374
-19.94408798 90.54906464 346.37142944
-19.29948235 90.48906708 346.77288818
-18.65618896 90.42876434 347.17541504
-18.03597260 90.21226501 347.67788696
-17.39533234 90.15160370 348.08239746
-14.07636833 90.95465088 344.90509033
-12.76202679 90.76365662 346.09011841
-10.73970890 89.50120544 350.16134644
-9.02266693 89.68531036 349.36352539
-8.42102432 89.68364716 349.44259644
-23.21314812 91.10561371 342.88238525
-22.55975533 91.04664612 343.28079224
-21.74943352 89.98238373 346.15994263
-21.06364059 89.86104584 346.90078735
-19.92836571 89.99279785 346.32479858
-18.04216766 89.50139618 347.73123169
-17.40149689 89.44113159 348.13580322
-14.02741146 90.32978821 345.20944214
-13.38603115 90.26674652 345.62786865
-12.77781868 90.26744080 345.69696045
-11.29440022 88.88589478 350.38613892
-10.69445515 88.88484955 350.46127319
-23.85051537 90.22681427 342.98791504
-22.50305557 90.17228699 343.94842529
-21.73371124 89.42649841 346.11334229
-21.08721733 89.36796570 346.51086426
-17.98983192 88.88468170 348.02899170
-17.38577461 88.88636017 348.09024048
-14.01149940 89.76895905 345.16455078
-13.36999702 89.70643616 345.58294678
-12.76190758 89.70692444 345.65206909
-11.90949821 88.39421844 349.92703247
-10.07863235 88.32939148 350.49490356
-23.13926125 89.54621887 343.68576050
-22.52828407 89.55062866 343.73602295
-21.07235718 88.68840790 346.64501953
-18.65236473 88.45047760 347.23651123
-18.01057053 88.39118195 347.64013672
-17.36986923 88.33146667 348.04568481
-13.99543571 89.20814514 345.11962891
-13.35396385 89.14595032 345.53808594
-12.74584293 89.14624786 345.60815430
-11.89368439 87.83985138 349.88351440
-11.26271152 87.77795410 350.30014038
-10.09167767 87.83598328 350.10989380
-23.12341309 88.98700714 343.63796997
-22.51237488 88.99118042 343.68820190
-18.63661194 87.89482117 347.19091797
-17.99469376 87.83583832 347.59454346
-17.35402489 87.77648926 348.00015259
-11.87787056 87.28545380 349.84002686
-10.10215855 87.19730377 350.01953125
-18.62076950 87.33905792 347.14532471
-17.96464539 87.06541443 347.99243164
-17.32486153 87.00681305 348.39605713
-12.55699921 86.91156769 348.69573975
-24.39938164 87.98191833 342.74618530
-20.51681519 87.11207581 345.79086304
-19.89269447 86.89916229 346.29345703
-18.60489273 86.78311920 347.09970093
-17.97139168 86.35613251 348.04589844
-17.36754417 86.35689545 348.10903931
-12.54109192 86.35550690 348.65216064
-11.87659454 86.23545074 349.41140747
-24.29752159 87.30066681 343.39501953
-22.54856873 87.06127930 343.39916992
-21.89652252 87.00417328 343.79974365
-18.58892632 86.22711182 347.05313110
-17.35161018 85.80204010 348.06347656
-16.74797630 85.80243683 348.12765503
-12.55685043 85.85844421 348.26397705
-11.92246246 85.79806519 348.68164063
-11.31263065 85.51074219 349.34719849
-20.46756172 85.78399658 346.14294434
-18.59551620 85.51655579 347.10751343
-17.97631264 85.30473328 347.61224365
-17.33567238 85.24700928 348.01797485
-16.73207092 85.24718475 348.08209229
-12.54075909 85.30165863 348.22027588
-11.32344532 84.87112427 349.25671387
-24.91810226 85.86872101 343.45205688
-20.37352562 85.11093903 346.78335571
-17.96037483 84.74917603 347.56665039
-17.31979942 84.69184113 347.97238159
-12.55639458 84.80281830 347.83203125
-24.90210152 85.30968475 343.40325928
-24.20560837 85.19643402 344.14529419
-20.43556595 84.67036438 346.04861450
-17.37619209 84.25108337 347.24057007
-12.57212067 84.30307007 347.44165039
-11.92421913 83.81880188 348.75173950
-11.26088524 83.70238495 349.51327515
-24.88613510 84.75051880 343.35440063
-24.18951797 84.63802338 344.09759521
-20.40265083 83.90280914 346.44656372
-19.74214363 83.63652802 347.29101563
-17.96513939 83.69463348 347.13183594
-17.36022568 83.69470978 347.19494629
-15.42136002 83.10316467 349.30487061
-14.78621578 83.04579163 349.71463013
-11.90815926 83.26243591 348.70809937
-11.24482632 83.14691162 349.46957397
-24.19473457 83.92580414 344.14990234
-19.76455116 83.13723755 346.90283203
-17.38055801 83.19454193 346.80560303
-16.73918915 83.13783264 347.21438599
-15.40521145 82.54904938 349.26031494
-14.77012920 82.49205780 349.67019653
-14.16951275 82.49047089 349.74130249
-12.49451828 82.70815277 348.58944702
-11.89210033 82.70584106 348.66445923
-11.22873592 82.59125519 349.42599487
-24.19995308 83.21394348 344.20312500
-23.59077263 83.21623993 344.25326538
-19.78720474 82.63699341 346.51248169
-19.14330482 82.58164978 346.91632080
-17.43746758 82.74952698 346.06951904
-16.72303581 82.58098602 347.16867065
-16.02563858 82.05123138 348.80697632
-15.42356014 82.04995728 348.87506104
-11.87607002 82.14926147 348.62081909
-11.24314785 82.09108734 349.03967285
-24.27004433 82.76749420 343.46118164
-23.57461929 82.65771484 344.20556641
-20.44951439 82.55334473 345.17050171
-19.80967331 82.13563538 346.12213135
-19.12712479 82.02526855 346.87063599
-17.42125320 82.19117737 346.02380371
-16.00958061 81.49656677 348.76144409
-15.37312889 81.44052124 349.17129517
-14.07118225 81.27330017 350.33297729
-11.85982609 81.59250641 348.57717896
-11.25752926 81.58982086 348.65216064
-23.60102463 82.15463257 343.81018066
-22.94913292 82.10084534 344.20993042
-19.79358482 81.57843781 346.07546997
-19.14907455 81.52365875 346.48025513
-15.99334240 80.94175720 348.71685791
-15.38127995 80.73362732 349.22589111
-14.77061939 80.52529907 349.73605347
-22.93288994 81.54189301 344.16110229
-19.20930672 81.07548523 345.74404907
-14.75443935 79.97149658 349.69161987
-13.55375385 79.96660614 349.83569336
-23.65442085 81.02463531 343.20303345
-22.91664505 80.98275757 344.11325073
-19.23140526 80.57127380 345.35144043
-18.58613396 80.51693726 345.75833130
-15.99611855 79.88509369 348.28488159
-13.53766632 79.41239166 349.79116821
-25.20513153 79.90043640 345.44030762
-18.60774422 80.01205444 345.36572266
-17.82531166 79.38686371 347.69827271
-16.01489067 79.38222504 347.89739990
-14.79015541 78.96810150 348.92169189
-14.18862343 78.96553040 348.99270630
-13.58715057 78.96263885 349.06570435
-25.18892097 79.34425354 345.39163208
-14.80810547 78.46488190 348.53512573
-22.30369759 79.00066376 344.22711182
-25.24416733 78.33457184 344.60760498
-17.82488251 77.41619110 347.76284790
-17.22155190 77.41423798 347.82785034
-16.58259583 77.36106873 348.23687744
-14.20705509 77.40111542 348.17486572
-24.57742119 77.37403870 345.49929810
-17.77152443 76.81016541 348.05825806
-17.09603310 76.70752716 348.80636597
-16.45890999 76.65490723 349.21447754
-14.19075203 76.84448242 348.12921143
-13.52199936 76.74015045 348.88833618
-24.56111908 76.81756592 345.45062256
-17.71819687 76.20501709 348.35382080
-17.10439873 76.00242615 348.86117554
-16.46736908 75.95030975 349.26925659
-13.53860188 76.23421478 348.50057983
-23.98126793 76.31063080 345.11102295
-18.37912178 75.75085449 347.55895996
-14.52223587 74.64566040 351.76388550
-23.96484184 75.75311279 345.06335449
-18.36266708 75.19481659 347.51342773
-14.53978539 74.14217377 351.38336182
-23.99148369 75.24433899 344.67056274
-17.70999146 74.47177124 348.05514526
-17.11642456 74.23657990 348.48468018
-16.51480103 74.23341370 348.55264282
-14.52342510 73.59046173 351.33898926
-23.36733818 74.68536377 344.67578125
-21.01807404 74.77780151 344.21157837
-16.49837494 73.67800903 348.50811768
-15.89684296 73.67448425 348.57705688
-14.50700474 73.03877258 351.29455566
-21.61001015 74.21918488 344.10470581
-21.00140190 74.21759033 344.16369629
-16.48186111 73.12266541 348.46252441
-13.91244698 72.13890076 351.86038208
-21.59342957 73.65894318 344.05682373
-20.90375137 73.56202698 344.80914307
-17.76762199 73.06027985 346.70825195
-17.14049339 72.66362762 347.66445923
-16.50141907 72.61360168 348.07464600
-14.50797653 71.98032379 350.86853027
-22.20954132 72.95018005 344.05432129
-21.60102654 72.94833374 344.11227417
-20.91141129 72.85254669 344.86361694
-17.19768524 72.19918060 346.93307495
-16.52097893 72.10327148 347.68768311
-15.15840054 71.52279663 350.07434082
-14.50469971 71.35356140 350.87384033
-13.87972736 71.03619385 351.77273560
-22.21705055 72.24002838 344.10980225
-21.60877609 72.23799896 344.16763306
-16.50436974 71.54654694 347.64202881
-22.20043945 71.68011475 344.06088257
-18.93428421 71.16436005 346.80096436
-18.29654121 71.00141907 347.39163208
-17.09054565 70.99366760 347.52639771
-16.45147324 70.94469452 347.93765259
-14.59503555 70.49910736 349.37948608
-13.91386986 70.02057648 351.01113892
-24.10165405 69.91806793 348.96643066
-18.92144585 70.49300385 346.93661499
-18.27984047 70.44474030 347.34487915
-17.07375526 70.43685150 347.48071289
-16.43486404 70.38814545 347.89205933
-14.53638554 69.70818329 350.11526489
-24.12817001 69.40919495 348.58166504
-18.98214149 70.02391815 346.20309448
-18.26308060 69.88799286 347.29922485
-17.08309746 69.73106384 347.53646851
-16.44084167 69.61872101 348.09609985
-15.17874718 69.77824402 348.33160400
-16.45358086 68.97792816 348.00363159
-14.01304245 68.91416168 348.63757324
-24.03889847 68.13722229 349.11395264
-13.99628162 68.35768890 348.59292603
-24.03939629 67.37788391 349.31057739
-18.86684418 67.92598724 347.29626465
-18.26408958 67.92137909 347.36312866
-17.05891609 67.91190338 347.49984741
-16.45637321 67.90685272 347.57070923
-15.25180817 67.89633179 347.71438599
-14.64975071 67.89088440 347.78823853
-14.04775620 67.88519287 347.86306763
-18.88893127 67.41082764 346.90704346
-18.24726868 67.36460114 347.31643677
-15.83719158 67.34429169 347.59582520
-15.23492336 67.33880615 347.66870117
-14.03093243 67.32746124 347.81735229
-24.13560295 66.39518738 348.20617676
-23.40686035 66.27110291 349.27279663
-18.87195778 66.85353088 346.86029053
-18.23047638 66.80763245 347.26974487
-17.62772179 66.80261993 347.33859253
-15.85634804 66.82799530 347.20654297
-14.01398659 66.76947784 347.77258301
-23.47523689 65.79847717 348.55224609
-21.67488861 65.78574371 348.73397827
-18.21350098 66.25055695 347.22305298
-17.61077690 66.24535370 347.29190063
-15.87535095 66.31052399 346.81710815
-15.20115471 66.22333527 347.57720947
-13.99704075 66.21144867 347.72683716
-23.41567230 65.20635986 348.84140015
-21.65804100 65.23230743 348.68649292
-17.59377289 65.68807220 347.24514771
-15.85837269 65.75166321 346.77130127
-15.25506592 65.74583435 346.84408569
-14.01433277 65.69342804 347.33834839
-21.68220139 64.71749878 348.30139160
-17.61448288 65.17015076 346.85577393
-15.30931282 65.26641846 346.10891724
-13.99735546 65.13470459 347.29260254
-23.15789604 64.77346802 345.20257568
-21.66532135 64.16337585 348.25384521
-13.58222580 64.80574036 345.24697876
-22.89464188 63.54768753 347.92456055
-21.65471268 63.39089584 348.56668091
-14.20581532 64.28912354 344.77752686
-13.53079224 64.20433807 345.54977417
-22.28256416 62.77059555 348.29925537
-21.64090919 62.72837830 348.69888306
-17.57909012 63.16492081 347.26443481
-16.94976616 63.30500793 347.23263550
-14.15380287 63.68779755 345.07922363
-23.10639000 63.09774399 345.05615234
-20.98353386 62.13261032 349.05310059
-17.56202126 62.60737610 347.21765137
-16.95981407 62.60102463 347.28845215
-14.51725769 62.53714752 347.92642212
-14.10163689 63.08735657 345.38104248
-23.00339508 62.46487427 345.69287109
-22.24843788 61.66244125 348.20318604
-21.64827919 61.65684509 348.26608276
-21.00726509 61.61508942 348.66775513
-18.22408485 62.12937164 346.41546631
-17.58269882 62.08635712 346.82806396
-14.53069401 61.89410400 347.83578491
-22.99408722 61.58103943 346.19125366
-22.28981400 61.32385635 347.37426758
-21.63103294 61.10233688 348.21847534
-20.99004936 61.06100082 348.62020874
-18.20677185 61.57067108 346.36764526
-17.56541824 61.52798843 346.78128052
-23.62383270 61.06484985 345.74093628
-22.97690010 61.02391052 346.14254761
-22.33106422 60.98278427 346.54525757
-21.01371574 60.54179001 348.23483276
-18.18951988 61.01181793 346.32086182
-17.54816628 60.96953201 346.73455811
-22.98545456 60.32238007 346.19650269
-22.33964729 60.28165054 346.59924316
-21.71797562 60.20462799 346.92285156
-20.99646950 59.98687744 348.18725586
-18.17229843 60.45276642 346.27401733
-17.56887245 60.44610977 346.34375000
-16.36240578 60.43235397 346.48815918
-15.75925159 60.42523193 346.56192017
-14.47020340 59.97944260 348.29174805
-22.34850883 59.58085632 346.65420532
-21.70422935 59.54049683 347.05697632
-21.06117058 59.49999619 347.46170044
-14.48812962 59.45627975 347.90396118
-22.33116722 59.02399826 346.60556030
-21.68695068 58.98404312 347.00833130
-21.04389381 58.94394684 347.41302490
-22.35626793 58.50022888 346.21582031
-21.71134949 58.46061707 346.61959839
-21.02649307 58.38764572 347.36541748
-20.42532349 58.38098145 347.43118286
-19.04169464 57.88389969 349.80065918
-17.59284210 58.83552933 345.51412964
-16.97597504 58.59003448 346.18414307
-14.52382946 58.40675735 347.12619019
-22.38142776 57.97541809 345.82507324
-21.77787971 57.96881866 345.88879395
-21.09155655 57.89654922 346.63662720
-20.40786171 57.82439041 347.38351440
-19.59657288 56.99016571 350.55740356
-18.96175575 56.95096970 350.96130371
-23.69421387 57.84743118 344.07220459
-21.76041412 57.41048813 345.83999634
-21.11546516 57.37129593 346.24685669
-20.46272850 57.21508026 346.95086670
-19.57920647 56.43824768 350.50997925
-18.90552521 56.36830139 351.24911499
-17.01026154 57.41728973 345.70034790
-23.65907478 57.11121750 344.47106934
-23.01012993 57.07262802 344.87582397
-22.40529633 57.06592178 344.93853760
-21.74286079 56.85195541 345.79119873
-21.13940239 56.84500885 345.85592651
-20.46792793 56.45678711 347.15359497
-23.66793251 56.40799713 344.52603149
-23.01910782 56.36981964 344.93075562
-21.76746750 56.32461166 345.39926147
-15.60642719 55.80476761 348.02270508
-23.65031433 55.84815979 344.47604370
-23.00136757 55.81027603 344.88189697
-22.39681244 55.80334473 344.94363403
-19.52707863 54.78150558 350.36978149
-18.85330582 54.71409607 351.11004639
-22.98381233 55.25061417 344.83197021
-22.37907219 55.24351501 344.89471436
-19.50958824 54.22899628 350.32232666
-18.87477112 54.19159317 350.72839355
-15.57134724 54.68928146 347.93020630
-22.96604156 54.69079590 344.78311157
-22.27572823 54.62382126 345.53222656
-20.24936104 53.79950714 348.86093140
-19.57144165 53.73368073 349.60427856
-15.55379200 54.13131714 347.88345337
-23.00250435 53.84653854 344.94293213
-22.32281113 53.89478683 345.39367676
-20.82992935 53.25320816 348.74459839
-20.23177910 53.24490738 348.81332397
-19.55379868 53.17998123 349.55676270
-18.91763878 53.14316940 349.96484375
-16.19451332 53.29767990 347.96780396
-22.33749962 53.25057220 345.29901123
-21.69145393 53.21403122 345.70690918
-20.88580132 52.64183807 348.31594849
-20.21413422 52.69011307 348.76580811
-19.57608414 52.65379333 349.17288208
-18.93922424 52.61738586 349.58096313
-21.72054100 52.57942581 345.49884033
-19.59821892 52.12649155 348.78890991
-16.19658661 52.20982361 347.53283691
-15.53022385 52.31486893 347.84805298
-14.91669559 52.23981094 348.18795776
-18.98266602 51.56257629 348.81201172
-16.21615219 51.67853546 347.14456177
-15.54213524 51.61488724 347.90515137
-14.94272804 51.60528183 347.98379517
-19.00427818 51.03344727 348.42694092
-19.68206596 50.23217010 348.17514038
-15.57998562 50.55062866 347.12854004
-14.97947979 50.54085541 347.20718384
-19.66432953 49.67606735 348.12747192
-17.28775024 49.96926880 347.53390503
-15.59906197 50.01688004 346.73812866
-19.64656448 49.11984253 348.07876587
-17.94131279 49.36032486 347.02612305
-17.26976395 49.41101837 347.48709106
-13.21985435 49.77608871 345.76892090
-14.99854565 48.91106796 346.38031006
-19.03369522 48.32360077 347.16970825
-22.70425224 47.86944199 346.02404785
-22.04528427 47.67426682 346.87500000
-18.49444962 47.80261993 346.51226807
-17.63915825 48.63650131 342.07699585
-17.09187889 48.34249115 342.36633301
-13.76841068 48.09822083 345.54714966
-12.06225872 48.13909912 344.75466919
-22.74243355 47.03299332 346.18341064
-22.05537224 46.97799301 346.92929077
-21.37099075 46.92304993 347.67520142
-18.59551430 47.31241608 345.43432617
-12.01029015 47.55064011 345.05718994
-22.68080330 46.45249557 346.47332764
-22.03726768 46.42056274 346.88061523
-21.35291862 46.36651230 347.62652588
-18.53744888 46.72859573 345.73007202
-16.80791283 46.74337387 345.26635742
-22.70607376 45.91627121 346.08383179
-18.57913589 45.88891220 345.89224243
-16.78965187 46.18113327 345.21929932
-16.18673325 46.17066574 345.29681396
-22.68778419 45.35772324 346.03399658
-22.08661270 45.34764099 346.10156250
-20.71752167 45.24276733 347.59973145
-18.48120880 45.28591919 346.52893066
-13.25199032 45.72053146 344.42556763
-22.05427361 44.63035583 346.49664307
-21.41140556 44.59938431 346.90597534
-20.77420807 44.62122345 347.16833496
-19.06357765 44.73694992 346.40646362
-18.46291924 44.72640228 346.48004150
-17.78412437 44.67424011 347.23925781
-13.20820236 45.03329086 344.91448975
-21.46477127 43.92385483 346.62054443
-20.82266617 43.89330292 347.03094482
-17.74748611 43.55648041 347.14361572
-13.27753353 43.96549606 343.77441406
-21.51341057 42.84495926 345.84118652
-20.82808685 42.79624176 346.59347534
-19.05389404 42.85101318 346.41809082
-17.78994179 42.72198868 347.30407715
-20.89388275 42.27433777 345.86181641
-19.05055428 42.22250748 346.42224121
-17.77162361 42.16311646 347.25619507
-20.83326340 41.69653320 346.15487671
-17.83186340 41.64005280 346.52542114
-12.08460999 42.60007858 342.18029785
-22.01589203 41.15942001 345.96398926
-21.41526413 41.14826202 346.03448486
-20.77270508 41.11965561 346.44595337
-19.05429268 41.12049866 345.98248291
-17.77420044 41.06253433 346.81951904
-21.39661026 40.58880615 345.98458862
-20.71205330 40.54361725 346.73809814
-19.59530830 40.55451965 346.20208740
-18.99516678 40.54299164 346.27658081
-18.39496422 40.53135300 346.35308838
-17.79494667 40.51970291 346.42962646
-12.68972683 41.49142456 341.64685059
-21.40797806 39.89299011 346.04098511
-20.69355392 39.98490143 346.68933105
-19.55579185 39.68953323 347.04489136
-18.40752029 39.83462143 346.40948486
-17.77638245 39.95943832 346.38165283
-12.66723633 40.60695267 342.52276611
-20.81935883 39.18579102 346.16784668
-12.61353016 40.02168655 342.82748413
-16.61642265 38.84497833 345.75646973
-12.62999630 39.46975327 342.42886353
-21.40743828 38.37915802 345.10275269
-20.82452774 38.08106232 345.72796631
-20.18218040 38.05437088 346.14248657
-19.58225441 38.04224014 346.21697998
-18.98260307 38.03004456 346.29244995
-20.84822845 37.53473663 345.33682251
-20.16343307 37.49435806 346.09365845
-18.96388435 37.46977234 346.24453735
-20.25172806 36.41341782 344.96804810
-19.60874367 36.38774490 345.38577271
-17.20621872 36.33738327 345.69647217
-15.97328377 36.44788742 345.75302124
-20.27494049 35.86413956 344.57470703
-19.63143539 35.83898163 344.99246216
-18.98911858 35.81366730 345.41213989
-16.58723259 35.76273346 345.72885132
-15.98699665 35.74987793 345.81030273
-19.57097054 35.26464081 345.28768921
-20.29032898 34.89736176 343.67855835
