23.19023895 80.70682526 342.36166382
18.72324753 79.64318085 339.70513916
19.09463120 79.62468719 340.22259521
25.50923729 81.29551697 336.34817505
23.49355507 80.16890717 342.05224609
18.38512802 79.06919098 339.16320801
18.01616096 78.61029053 340.36004639
21.29742432 79.20357513 340.61700439
22.14351845 79.32987213 341.60653687
23.27170181 79.42229462 342.25561523
18.41941452 78.47673035 339.13800049
18.04957581 78.01939392 340.33563232
22.06615639 78.56908417 341.63766479
23.06626129 78.58597565 342.40045166
18.13397408 77.62974548 339.37741089
18.08366013 77.42832184 340.31054688
18.56114388 77.57225800 340.77282715
22.46513176 77.95341492 342.13699341
18.00870705 76.91091919 339.48419189
18.11785316 76.83727264 340.28549194
18.48655319 76.81806946 340.80303955
22.66997528 77.48921204 341.01721191
23.03630447 77.46906281 341.54211426
18.30424118 76.37321472 339.17419434
18.15132904 76.24602509 340.26110840
18.51999855 76.22672272 340.77868652
23.43534851 76.85165405 342.04278564
18.18552208 75.65467072 340.23614502
18.55358124 75.63521576 340.75427246
23.73856926 76.30902100 341.73291016
18.48085976 75.11613464 339.92718506
18.58780670 75.04375458 340.72924805
25.37362671 77.08026886 335.64254761
24.65211487 76.83715820 337.34753418
23.77227592 75.71113586 341.70822144
24.08875656 75.96512604 342.41152954
18.51517868 74.52397156 339.90216064
18.62138939 74.45201874 340.70495605
24.96631241 76.29038239 336.04895020
24.18634224 75.84822845 337.72930908
23.53429985 75.05934143 341.97097778
26.30498314 75.52062225 342.82678223
18.44140625 74.00289154 339.07397461
18.54943275 73.93170929 339.87719727
18.65494347 73.86021423 340.68066406
23.35966873 74.37137604 341.18991089
23.56733322 74.46175385 341.94702148
26.36785126 74.73505402 342.68621826
18.47575569 73.41004944 339.04895020
18.32125854 73.28814697 340.13748169
18.68927765 73.26837158 340.65570068
23.60044670 73.86399841 341.92318726
26.14122009 73.98888397 342.89059448
18.45509338 72.73651886 339.05163574
18.24558449 72.53529358 340.16812134
18.61343193 72.51537323 340.68612671
21.60755157 72.77708435 342.10028076
25.81251717 73.41001892 342.33630371
25.62575912 73.28435516 343.43936157
18.06310272 71.85243225 339.39529419
18.17056084 71.78287506 340.19799805
21.27693367 72.20300293 341.55291748
21.64126205 72.18216705 342.07580566
25.45660591 72.59394073 342.65505981
25.65818977 72.68492889 343.41607666
18.09742165 71.26026917 339.37030029
20.94537163 71.62878418 341.00601196
21.31063461 71.60807037 341.52850342
21.40760040 71.53754425 342.33630371
24.55740738 71.67964172 343.54397583
17.61058426 70.57145691 339.91467285
20.60223198 70.82362366 341.32131958
21.17445183 70.89398956 342.59616089
24.23060799 71.10352325 342.99182129
24.59044456 71.08176422 343.52005005
24.40562057 70.96085358 344.61700439
17.01708221 69.95265198 339.65701294
17.38497543 69.93254089 340.17370605
19.53036880 70.06224823 340.59375000
20.52480888 70.06849670 341.35153198
20.62317276 69.99944305 342.15808105
24.62281036 70.48364258 343.49676514
24.43796921 70.36402130 344.59365845
16.73367882 69.11895752 339.89389038
16.79184914 69.08932495 340.76943970
20.55851936 69.47447968 341.32708740
20.65688515 69.40585327 342.13375854
24.11304283 69.78917694 344.04214478
24.47092819 69.76702881 344.56985474
16.60875702 68.40769958 340.00027466
16.71731758 68.34136963 340.79882813
20.59221649 68.88025665 341.30273438
20.68980217 68.81207275 342.11007690
23.94457626 69.10013580 343.26000977
24.03214645 69.03045654 344.07278442
24.38910103 69.00817871 344.60098267
24.63072205 68.82397461 345.18374634
16.64303970 67.81793976 339.97543335
16.75091171 67.75202942 340.77478027
17.11589050 67.73130035 341.29135132
20.36093903 68.23966980 341.56320190
20.72362137 68.21826935 342.08572388
21.08516312 68.19680786 342.60873413
23.86298180 68.34117126 343.29135132
23.95102119 68.27228546 344.10330200
24.66299438 68.22717285 345.16052246
16.93682098 67.27290344 339.66595459
16.78523636 67.16259003 340.74993896
16.89179230 67.09726715 341.54809570
20.11671829 67.37403870 342.68209839
23.62624550 67.69794464 343.55181885
23.71378136 67.62964630 344.36337280
23.80000305 67.56135559 345.17355347
16.97114944 66.68224335 339.64111328
16.81959343 66.57312012 340.72515869
19.77608299 66.57807922 342.99362183
23.65927887 67.10118866 343.52801514
23.47716522 66.98827362 344.62265015
23.83225632 66.96561432 345.15039063
17.26440620 66.13528442 339.33224487
16.74386978 65.82598114 340.75482178
16.85030174 65.76169586 341.55297852
19.80902672 65.98620605 342.97006226
23.69170380 66.50424194 343.50488281
23.77908325 66.43701935 344.31637573
23.86454010 66.36980438 345.12728882
17.29885864 65.54382324 339.30743408
23.42807007 65.63672638 344.62994385
16.70686913 64.93049622 339.05035400
17.07457924 64.90967560 339.56677246
17.44072151 64.88875580 340.08444214
17.64884377 64.76124573 341.68716431
19.77850342 64.86657715 342.11785889
19.87635040 64.80207062 342.92156982
22.72377396 64.86128235 344.41500854
16.42306709 64.10270691 339.28735352
17.72838402 64.11910248 340.63314819
18.20308304 64.25490570 341.09768677
20.07576752 64.31601715 341.80996704
19.90931129 64.20986938 342.89807129
21.84270477 63.98141861 345.28948975
22.30885124 64.11688995 345.76235962
15.78565598 63.31262207 339.95907593
17.65215874 63.37107849 340.66238403
18.23752022 63.66342926 341.07290649
20.10955429 63.72259521 341.78570557
19.45620346 63.26137543 343.26345825
21.40799522 63.25314331 344.79428101
21.58322906 63.12516403 346.40420532
15.56439781 62.68350983 340.21621704
20.14338875 63.12897873 341.76144409
21.17643166 62.61991119 345.05087280
21.26422501 62.55651855 345.85601807
15.59949875 62.09511566 340.19088745
20.51655006 62.51715469 341.33773804
21.20934868 62.02765274 345.02725220
21.29704666 61.96475983 345.83239746
21.64824677 61.94155502 346.35766602
15.63331985 61.50639343 340.16702271
20.51169777 61.70643997 341.25357056
21.24156189 61.43521881 345.00436401
21.32924271 61.37280273 345.80950928
15.81370544 60.80097580 339.91415405
15.92146873 60.74101639 340.71237183
15.91813946 60.52634811 341.56298828
16.13109207 60.62113953 342.30755615
21.27452278 60.84262848 344.98074341
21.36208153 60.78082657 345.78588867
15.99377441 60.09446716 339.66091919
15.84605598 59.99765015 340.74133301
15.95242882 59.93839645 341.53836060
16.05623817 59.87901688 342.33566284
15.90271568 59.78240585 343.41058350
21.04294205 60.21199417 345.23751831
21.39507294 60.18873596 345.76229858
16.14762688 59.35517883 340.37670898
15.82781982 59.23543930 341.64297485
15.97947693 59.13728714 342.36483765
15.82663727 59.04204178 343.43911743
21.07594872 59.61982346 345.21408081
21.42728615 59.59651566 345.73953247
20.01514626 60.39607239 334.72732544
19.59630013 60.25959015 336.12350464
15.39309597 58.32460403 342.95159912
15.75054169 58.30216980 343.46765137
21.37347031 59.06449890 344.91009521
19.03368759 59.37034988 335.68887329
18.88036919 59.27425003 336.78924561
22.72471619 58.43737411 346.18618774
18.95906830 58.83141327 334.85134888
18.54563904 58.69963837 336.24343872
18.65368271 58.64137268 337.05331421
15.36363983 57.41955948 341.25772095
15.10342979 57.17465591 342.38699341
16.68610001 57.17593002 343.37948608
19.71793365 57.50844955 344.76089478
23.02426147 57.87942123 345.88262939
18.73287582 58.19720459 335.11718750
18.58129311 58.10344696 336.21798706
18.05539703 57.81920242 337.65841675
15.03315544 56.64474106 341.56695557
15.13779354 56.58829117 342.36242676
16.71979523 56.58819580 343.35559082
19.39785767 56.94088745 344.21453857
19.22862816 56.84856415 345.29544067
20.45403671 56.87072754 345.78454590
22.45911407 57.01890945 346.39663696
18.18205261 57.33374405 335.65039063
18.03159142 57.24168015 336.74829102
15.32620811 56.30019379 340.41152954
15.06752014 56.05777359 341.54244995
15.17215729 56.00181580 342.33795166
16.75337029 56.00037003 343.33166504
19.61265945 56.23540497 345.79452515
19.96201324 56.21178055 346.31808472
18.05569649 56.62266159 335.75833130
17.90515518 56.53178406 336.85601807
15.25034523 55.55911255 340.44012451
14.12203789 55.06919479 342.46109009
15.20648956 55.41535568 342.31350708
16.78702164 55.41243744 343.30780029
18.71814919 55.38534927 344.83099365
19.22269821 55.49900818 346.17626953
17.82721329 55.78265381 336.88616943
14.52309418 54.87387848 341.25817871
14.15702248 54.48428726 342.43591309
17.07847214 54.85688400 343.00354004
18.14056015 54.78709793 344.56405640
18.23332977 54.73137283 345.36346436
18.93250656 54.68414307 346.40676880
14.08756638 54.15841675 340.77172852
14.08522701 53.95319748 341.61846924
14.19138241 53.89911270 342.41152954
14.29555416 53.84515762 343.20410156
16.85511589 54.23635864 343.25933838
18.17424393 54.19827652 344.54003906
18.26615906 54.14298248 345.34014893
18.96539688 54.09565353 346.38345337
14.12035084 53.36746979 341.59335327
13.97381020 53.28333282 342.66494751
14.07750702 53.22988892 343.45715332
18.20725822 53.60929489 344.51681519
18.29981232 53.55455017 345.31613159
18.99757195 53.50701523 346.36087036
14.04756641 52.83460617 340.77478027
13.54126358 52.57141495 342.17886353
13.12419128 52.42921066 343.53302002
18.24092674 53.02016449 344.49282837
18.33271408 52.96598053 345.29296875
18.68213272 52.94224548 345.81509399
24.28019714 53.16635513 349.84146118
15.72189236 53.19312668 336.43444824
15.32208633 53.07863235 337.80905151
13.57870388 52.18899155 341.30963135
13.93706417 52.16617966 341.82379150
13.32069302 51.75557709 343.27465820
18.16097641 52.27901077 344.52169800
18.25349617 52.22557831 345.32116699
18.60269547 52.20174026 345.84307861
24.16745949 52.68394852 348.20166016
23.97197533 52.59799957 349.28842163
23.77471352 52.51230240 350.37216187
15.01262283 52.32828140 337.15023804
14.99161339 52.30652237 338.12265015
13.97221756 51.58078003 341.79873657
13.10449791 51.14371490 343.52700806
17.82423401 51.50947952 344.82806396
18.17421150 51.48558426 345.34942627
18.52321434 51.46164322 345.87112427
23.20498466 51.90077972 348.25769043
23.16488075 51.69309616 349.11502075
23.23807716 51.63879395 349.92077637
23.42394447 51.73739243 350.67565918
14.80504704 51.61725998 337.35092163
14.91677284 51.56550217 338.15090942
15.02649975 51.51368713 338.95050049
13.95191669 50.92034912 341.80010986
13.63979053 50.61659622 342.94940186
18.86570358 51.90787888 339.44665527
17.85783958 50.92114258 344.80407715
22.77873421 51.17930603 347.75726318
22.85539246 51.12571335 348.56362915
22.93002129 51.07194519 349.36938477
23.26944923 51.04708099 349.89852905
23.34055138 50.99332428 350.70373535
14.42866611 50.88859177 337.74078369
14.58670330 50.79666519 338.46380615
14.94981098 50.77376175 338.97970581
17.63379860 50.30477905 345.05819702
18.07235527 50.22893906 346.37802124
22.54561424 50.55821609 348.01190186
22.24105072 50.32461166 349.14526367
22.31541634 50.27171326 349.94937134
23.20577621 50.29130173 350.80691528
15.49890709 50.64324570 336.67315674
14.00604820 50.00225830 339.05758667
14.06232166 49.42470169 343.41607666
14.52569389 49.55034256 343.87988281
17.31699944 49.74077225 344.51394653
17.40972328 49.68959808 345.31228638
22.23487473 49.99055481 347.46066284
21.89338303 49.55450439 349.44924927
22.23183441 49.52953339 349.97741699
22.30470085 49.47725296 350.78018188
15.42320156 49.90046692 336.70175171
14.04146862 49.41424179 339.03262329
14.40338516 49.39123917 339.54742432
14.76370239 49.36803818 340.06347656
14.20534134 49.15624237 341.54968262
14.34892941 48.86663437 343.11395264
14.44947433 48.81672287 343.90744019
14.91130733 48.94192123 344.37252808
16.98108101 48.97618484 344.82009888
17.33020782 48.95210266 345.34057617
17.27638817 49.02474213 346.36306763
22.26711845 49.39813232 347.43780518
22.26314354 48.93933487 349.95529175
14.58360291 49.07813644 337.58776855
14.32962132 48.85250473 338.72463989
14.43879032 48.80305099 339.52243042
13.92482376 48.35427856 341.78085327
13.77742004 48.27932358 342.85232544
14.13111591 48.25577545 343.36746216
14.58233261 48.18275070 344.67614746
17.25134087 48.21517181 345.36804199
21.46054459 48.50090408 347.26824951
21.70450211 48.55959702 347.94638062
21.61732101 48.39886093 348.87652588
21.95682335 48.37397385 349.40423584
22.03104591 48.32294083 350.20709229
14.76190090 48.36449814 337.33074951
14.36579037 48.26376724 338.69891357
14.22159767 48.18904495 339.77917480
13.34651279 47.57039642 342.36535645
13.40446091 47.56299210 343.23135376
13.55267334 47.47336960 343.94781494
14.45909119 47.49172592 344.77752686
16.42501450 47.60180664 345.37774658
21.49280167 47.90947723 347.24551392
21.30833054 47.83332062 348.32708740
21.64879799 47.80857086 348.85443115
21.98816490 47.78356552 349.38208008
14.54467010 47.74858093 337.59005737
14.40133476 47.67476273 338.67395020
14.09876823 47.49389267 339.88342285
13.02180195 46.81419373 342.66912842
13.12522316 46.76630783 343.46002197
13.82783794 46.71850967 344.48977661
14.17765808 46.69457245 345.00540161
14.52577019 46.67041016 345.52203369
21.34049606 47.24296188 348.30432129
21.35153580 47.00101089 349.08285522
14.58024883 47.15848923 337.56503296
14.43748856 47.08581161 338.64825439
13.05622005 46.23041153 342.64489746
12.66063213 46.13602448 343.98760986
13.01148605 46.11220169 344.50143433
14.55933380 46.08707809 345.49844360
21.29496002 46.70182800 347.47662354
14.61657429 46.56824112 337.53936768
14.47307968 46.49660873 338.62332153
13.85301304 46.10539627 340.09182739
12.98546410 45.69348907 341.82934570
12.59264946 45.60063553 343.17352295
12.69501400 45.55384445 343.96347046
13.04583931 45.53002548 344.47729492
14.59292793 45.50354004 345.47485352
22.03843498 46.23140335 345.81094360
21.59026337 46.13451004 347.17651367
22.00921822 46.06077957 348.50955200
14.52648354 45.74370956 338.49166870
14.14095879 45.54139328 339.78485107
13.63401699 45.30193329 341.19296265
12.62709618 45.01786041 343.14944458
12.72939873 44.97157288 343.93945313
13.07949162 44.94759369 344.45385742
13.42862511 44.92365646 344.96871948
14.62652206 44.92000580 345.45123291
21.19518089 45.41188049 347.55718994
21.43709183 45.47115707 348.23611450
14.32092094 45.02241135 338.67944336
14.42825222 44.97613144 339.47854614
14.28213692 44.90732193 340.55740356
12.67851353 44.27267456 343.02066040
12.65356159 44.24320221 343.96633911
12.89372444 44.07307053 344.53076172
13.05672455 44.21495819 345.34384155
21.31229973 44.97551727 346.60302734
21.54553032 44.83283234 349.01702881
8.16547298 42.76522064 345.92657471
12.47548580 43.56032181 343.20333862
12.57830238 43.51528168 343.99252319
12.04360199 43.55275726 345.55203247
12.77813721 43.42513275 345.56954956
21.00114822 44.40830231 346.05276489
21.34527397 44.38354492 346.57952881
20.48508072 43.92607498 349.11825562
16.62837410 44.58962631 336.41491699
8.19953060 42.19092941 345.90274048
13.73086929 43.35204315 341.96655273
12.70444775 42.84981918 343.81869507
20.53021622 43.58897781 346.46911621
20.62182236 43.45082092 347.21435547
20.43934250 43.38341904 348.29443359
20.51721001 43.33732986 349.09558105
15.92501068 43.65576172 337.07196045
8.23357201 41.61644363 345.87905884
8.57957077 41.59218216 346.38668823
20.31184196 42.88519669 346.66543579
20.39296150 42.83965683 347.46853638
20.21056938 42.77351379 348.54724121
20.28716660 42.72796249 349.34872437
8.95802689 40.99322891 346.87182617
20.00168037 42.31948471 346.11627197
20.34490395 42.29462433 346.64215088
19.78928566 42.06221390 348.04833984
19.65631485 41.95500565 349.04888916
15.21933556 42.36917114 336.92004395
8.99208641 40.41843796 346.84796143
20.03469849 41.72879028 346.09295654
20.11727905 41.68440628 346.89605713
19.44657898 41.30688477 348.35159302
19.78493881 41.28174210 348.87686157
14.42907906 41.53004074 337.72683716
7.98576641 39.55035019 346.95053101
20.06785393 41.13801193 346.06976318
19.88879395 41.07534409 347.15072632
18.54143333 40.56029892 349.27536011
14.12876511 40.69043732 337.00796509
6.74731874 39.03407669 345.67480469
6.85432100 38.99338150 346.44885254
7.19778633 38.96895981 346.95541382
7.54099178 38.94445419 347.46173096
19.46461296 40.36364746 346.65313721
19.54663849 40.32062149 347.45440674
19.51167107 40.13075256 348.30572510
6.43696117 38.30498123 345.96832275
6.78193521 38.28048706 346.47348022
7.46823931 38.23135757 347.48599243
19.38327217 39.62755585 346.67971802
19.46450424 39.58506012 347.48171997
6.70924759 37.74797821 345.67593384
6.47234964 37.55310822 346.76507568
18.89801788 39.00459671 347.21023560
15.96474838 39.58744812 335.27914429
19.44869232 38.44863129 346.63397217
13.90467262 38.44411087 336.44802856
16.00157356 38.99291229 335.25354004
6.43357801 36.44835281 345.94525146
6.54045057 36.40990448 346.71798706
7.56960487 36.51422501 347.41574097
10.48841286 36.63943481 347.79821777
13.33579254 37.77107239 336.13299561
13.44777775 37.73126221 336.93292236
6.70574713 35.88945770 345.65267944
6.81233025 35.85147095 346.42663574
7.49672890 35.80183029 347.43997192
13.37239361 37.18083954 336.10763550
12.98285294 37.11178207 337.47644043
6.74062395 35.31664276 345.62838745
6.84647417 35.27907181 346.40307617
7.18878078 35.25420380 346.90985107
7.53005028 35.22936630 347.41708374
7.87107468 35.20455170 347.92404175
13.41038132 36.59062576 336.08071899
12.54534721 36.22244644 337.83975220
12.62844753 36.45598984 338.81469727
6.77480078 34.74353790 345.60488892
6.88061857 34.70658493 346.37954712
7.22284889 34.68170929 346.88626099
7.56411839 34.65686798 347.39346313
7.76458359 34.58282089 348.94165039
12.96981716 35.69967270 336.44781494
12.08507156 35.60808945 338.37850952
11.94537735 35.55677032 339.45520020
7.04711437 34.18215179 345.31228638
7.25694799 34.10911560 346.86267090
7.35943794 34.07262802 347.63696289
7.79849625 34.01132965 348.91802979
11.73371220 34.95859909 339.71038818
7.42600965 33.58351517 345.79507446
6.90281248 33.42948914 347.22674561
7.04815674 33.35104370 347.92739868
7.19262934 33.27279282 348.62719727
11.44027615 34.30530930 338.14883423
11.43913269 34.12681580 338.99481201
11.30095291 34.07832336 340.06774902
11.16188335 34.03005600 341.13702393
7.46027946 33.00963211 345.77148438
7.11053324 32.68691254 346.91070557
6.97487736 32.64132690 347.95144653
6.83843899 32.59608078 348.98870850
11.36545944 33.57779694 338.17547607
11.22885036 33.53031158 339.24996948
11.09071255 33.48296356 340.32165527
10.95172977 33.43585968 341.38970947
6.66968727 32.09513474 347.42129517
6.77155972 32.06040955 348.19372559
11.28943634 32.85081100 338.20239258
10.66226673 32.78354263 339.83499146
10.77027893 32.74807739 340.62576294
10.75810814 32.66236115 341.52474976
7.42135334 31.72352219 345.77191162
7.32281923 31.72595596 346.79965210
6.80560923 31.48940468 348.17025757
5.96197510 31.45569801 342.11972046
6.31136084 31.43069077 342.62506104
10.59438038 31.96944046 339.80239868
10.45734406 31.92487717 340.87121582
6.05721807 31.00239182 346.36181641
6.39761686 30.97726059 346.86819458
6.73784924 30.95212746 347.37429810
7.07634211 30.92687988 347.88159180
16.80107689 32.46454239 342.30847168
16.63749123 32.41869736 343.39044189
5.76129484 30.87205887 342.36715698
5.87308645 30.83857536 343.14373779
5.74870062 30.28610992 346.65261841
5.74613285 30.11635208 347.47146606
6.77197599 30.38043213 347.35079956
16.67163277 31.82996559 343.36694336
17.01677895 31.80464935 343.88900757
5.57632065 30.19334793 341.61450195
5.45385885 30.15249443 342.66287231
5.56580067 30.11957169 343.43817139
5.67622280 29.57876396 346.67623901
5.78022623 29.54615593 347.44808960
15.88483429 30.88246536 343.14270020
5.26944923 29.47418785 341.91085815
5.38241339 29.44175529 342.68728638
5.49420071 29.40942955 343.46243286
6.05565596 29.31953621 345.51681519
5.47512531 29.00118637 346.91955566
5.81430387 28.97585678 347.42468262
15.65897083 30.37783432 343.45605469
16.00318527 30.35241508 343.97714233
5.07002878 28.89319801 342.15826416
5.41836119 28.86788750 342.66256714
5.52940083 28.83599663 343.43847656
5.40474558 28.46240234 346.12377930
5.50998116 28.43085289 346.89547729
5.84841251 28.40545845 347.40133667
5.95103788 28.37405014 348.17196655
15.32615089 29.64209938 343.76071167
5.34145403 28.32535172 341.86151123
5.45429325 28.29391670 342.63787842
5.56533146 28.26252556 343.41375732
5.67450809 28.23118210 344.18933105
5.40497255 28.01316071 345.29513550
5.20477438 27.88578415 346.36688232
5.54413605 27.86035347 346.87216187
5.88325310 27.83502579 347.37719727
6.22070742 27.80967522 347.88339233
5.14200115 27.74516487 342.10900879
5.48960161 27.71978569 342.61392212
5.60048580 27.68889236 343.38983154
5.70964527 27.65814209 344.16537476
5.13320684 27.34584045 345.57122803
5.23897457 27.31529427 346.34356689
5.57830572 27.28986168 346.84881592
5.91736221 27.26452827 347.35388184
6.59057951 27.21360016 348.36740112
5.52564144 27.14561844 342.58926392
5.52848625 26.97975349 343.41372681
5.63752222 26.94950485 344.18920898
5.16826296 26.77470398 345.54727173
5.27393818 26.74465561 346.31961060
5.61326885 26.71922493 346.82482910
5.95160866 26.69383430 347.33053589
6.62461281 26.64300919 348.34393311
4.18245792 26.34341240 342.19653320
4.52973700 26.31789780 342.69976807
5.45647049 26.27100182 343.43762207
5.33058262 26.23720169 344.48184204
5.20257235 26.20341301 345.52404785
5.30821562 26.17395592 346.29635620
5.64747000 26.14853287 346.80151367
5.98580980 26.12303734 347.30718994
6.32242632 26.09762383 347.81402588
6.42198038 26.06822777 348.58605957
4.56571245 25.74502373 342.67520142
5.23759794 25.63217545 345.50012207
5.23620462 25.46876335 346.31927490
5.57458973 25.44327545 346.82495117
5.91270113 25.41778755 347.33038330
6.24916506 25.39216995 347.83700562
6.46264505 25.40922737 348.50573730
4.60173416 25.17215538 342.65066528
4.94800615 25.14658737 343.15420532
5.63637352 25.09544563 344.16442871
5.50170946 24.73832130 346.84832764
5.83960629 24.71272850 347.35351563
6.03921223 24.65620232 348.89694214
4.87257147 24.60175705 342.35446167
4.98329592 24.57355309 343.13040161
5.43608236 24.51980591 344.41006470
5.54242611 24.49168587 345.18460083
6.07328749 24.08669472 348.87356567
4.56643581 23.89229202 342.64938354
4.67709684 23.86465263 343.42410278
4.78684092 23.83711624 344.19772339
4.93732262 23.76565170 344.89697266
4.89372063 23.64850235 345.79067993
6.04145050 23.60046387 346.26687622
5.90799284 23.57153893 347.30691528
5.77305174 23.54266930 348.34426880
4.49430799 23.18574333 342.67349243
4.60563755 23.15866280 343.44735718
4.71519756 23.13162231 344.22094727
4.82284880 23.10473442 344.99395752
4.92872953 23.07777023 345.76675415
5.26775551 23.05214500 346.27163696
5.60508919 23.02639580 346.77774048
5.70701647 22.99971008 347.54949951
5.80647278 22.97301483 348.32162476
4.64155054 22.58639717 343.42279053
4.51666689 22.55910873 344.46578979
4.62390423 22.53270721 345.23846436
4.96381521 22.50703430 345.74285889
5.64008331 22.45565605 346.75381470
5.97641087 22.42984581 347.26037598
5.84065580 22.40321350 348.29840088
4.67685461 22.01386452 343.39901733
4.55187607 21.98776817 344.44195557
4.65903616 21.96187210 345.21466064
4.99893141 21.93620300 345.71902466
5.67440748 21.88465881 346.73059082
6.01067352 21.85894585 347.23706055
5.63351536 21.70668793 342.46566772
4.58781767 21.41629601 344.41744995
4.69421387 21.39093590 345.19082642
5.37148905 21.33941650 346.20135498
5.70870066 21.31366920 346.70733643
6.38021088 21.26227951 347.72067261
5.45247507 20.86605072 342.53744507
4.51511717 20.71253395 344.44113159
4.15575647 20.68993187 345.74844360
5.10737991 20.59281921 346.41683960
5.05964327 20.48050499 347.30831909
4.78415394 20.29608727 343.32620239
4.21014690 20.01091003 344.73239136
4.31711769 19.98677063 345.50369263
4.75856781 19.93671989 346.77966309
5.09387207 19.91090965 347.28512573
4.71069908 19.74731636 342.52655029
4.82026720 19.72331047 343.30172729
4.35227823 19.41653633 345.47991943
4.45669985 19.39286804 346.25152588
4.79285812 19.36702156 346.75650024
5.12810087 19.34110641 347.26199341
4.98098755 19.17136192 342.23071289
4.74753809 19.01875496 343.32537842
4.96335363 19.12701797 344.05285645
4.85346222 18.84050179 344.92105103
4.49105167 18.82307053 346.22848511
4.82722521 18.79712105 346.73339844
5.16243744 18.77130890 347.23880005
4.67549372 18.31455994 343.34823608
4.78304386 18.29180145 344.12292480
4.75932360 18.24981308 345.93786621
4.86229372 18.22728348 346.70956421
5.19669771 18.20141029 347.21566772
4.71153021 17.74199104 343.32379150
5.94900370 17.92634773 344.74774170
5.13091850 17.65331841 346.41937256
4.93228388 17.45997047 347.42984009
4.98142576 17.16487885 343.02883911
4.85427570 17.14748764 344.07470703
5.63972807 17.22627449 345.04052734
4.86066818 17.00042534 346.69253540
4.78299284 16.59648514 343.27557373
4.88959360 16.57526398 344.05090332
5.22847033 16.54907036 344.55703735
5.56707096 16.52298355 345.06289673
4.89506626 16.43041992 346.66946411
5.24759150 15.81788540 343.54995728
5.02960443 15.98223686 344.80200195
5.46854830 15.93567657 346.08288574
4.83072138 15.41640472 345.04714966
4.25269032 15.14944077 346.44546509
5.97374821 15.35204315 345.52291870
4.05585480 14.58694267 346.68728638
6.00826025 14.77934742 345.49978638
4.45629883 14.17021847 344.54022217
4.32221460 14.01060677 346.39871216
5.93425751 14.07709503 345.52233887
4.95451832 13.43567181 344.79928589
4.35734272 13.44106865 346.37503052
5.86019278 13.37513447 345.54492188
4.98983574 12.86383820 344.77548218
3.82055259 12.76023293 346.92880249
4.79105186 12.30089760 345.02090454
5.12602282 12.27462482 345.52752686
4.82632256 11.72956371 344.99719238
5.16130781 11.70329666 345.50375366
4.92082930 11.56834412 346.58880615
5.09507275 11.14797401 344.70510864
5.08713055 11.00373173 345.52639771
4.95449591 10.99808216 346.56649780
4.78050566 10.31553936 345.81579590
4.41502428 10.32172108 347.12091064
4.71433401 9.75986004 345.01852417
4.58322001 9.75626945 346.05883789
4.61774063 9.18599606 346.03579712
4.41975069 8.62815857 346.27960205
4.24588299 7.94546032 345.52908325
4.11420918 7.94518566 346.56774902
3.47879028 7.29009056 346.35018921
3.57819223 7.27736855 347.12057495
3.51330638 6.72162104 346.32730103
3.77919555 6.13838530 346.03781128
3.58297873 5.58452892 346.28091431
3.39293551 4.92568016 346.45272827
0.54787344 3.58874989 347.75848389
-2.17247033 2.45871305 357.33139038
30.83378410 109.16175842 338.35379028
30.20504761 108.40348053 338.29006958
30.79974174 108.30570984 338.82296753
31.37855148 108.12169647 339.74176025
29.59043503 107.65190887 338.88275146
30.19768333 107.64028931 339.02984619
30.80433846 107.62959290 339.17797852
31.36565781 107.38475800 339.91503906
29.62039375 107.14707947 338.46603394
30.11295128 106.52648926 339.99450684
30.71783638 106.51471710 340.14263916
31.30846405 106.41899109 340.67370605
29.02999687 106.56770325 338.28900146
29.62639046 106.47299194 338.82107544
30.73559761 105.92669678 340.11285400
31.33981323 105.91490173 340.26196289
29.04792786 105.97772980 338.25817871
29.60527992 105.70511627 338.90451050
30.14840698 105.35053253 339.93301392
30.75325012 105.33876038 340.08215332
31.34376907 105.24391937 340.61422729
29.56090355 104.77332306 339.75415039
30.16621208 104.76261139 339.90222168
30.77099609 104.75079346 340.05139160
29.08391571 104.79786682 338.19546509
29.57876968 104.18531799 339.72439575
30.18401909 104.17456818 339.87249756
30.77581596 104.08084106 340.40368652
29.06279182 104.02993774 338.27993774
29.59665298 103.59734344 339.69366455
30.20184517 103.58560181 339.84173584
30.80662346 103.57479095 339.99090576
29.03064919 103.18197632 338.74853516
29.63777351 103.17134857 338.89566040
30.21980095 102.99765778 339.81094360
29.02661705 102.43211365 339.48400879
29.05559540 101.92413330 339.07006836
29.14622307 101.75045013 337.76727295
29.69164467 101.40247345 338.80316162
30.93913841 101.54953003 338.77011108
28.60497856 101.42510986 337.08859253
29.10247612 100.82521820 338.62420654
29.70952797 100.81352234 338.77233887
30.92191696 100.78988647 339.07244873
28.56278610 100.50054169 337.94558716
29.12053299 100.23528290 338.59338379
29.72762871 100.22387695 338.74145508
30.33399773 100.21214294 338.89157104
30.93978691 100.20020294 339.04162598
27.97196388 99.92108154 337.76757813
28.53110504 99.65698242 338.41445923
30.33962059 99.54518890 339.24404907
27.94108582 99.07835388 338.23651123
28.53894043 98.99069977 338.76696777
30.33306885 98.80287170 339.97994995
27.95921516 98.48887634 338.20462036
28.55693054 98.40164185 338.73614502
29.67822456 97.95380402 339.64581299
26.87177086 98.57457733 336.10610962
28.57516670 97.81254578 338.70434570
30.25276375 97.05515289 341.28912354
30.80124092 96.79565430 341.93240356
31.36565018 96.60202789 342.75262451
26.89020920 97.98227692 336.07308960
27.47475243 97.74430847 337.38037109
28.56335258 97.08254242 338.87802124
29.14904213 96.96311188 339.32064819
30.17826271 96.05001068 341.86434937
30.76614761 95.96427917 342.39401245
31.35215378 95.87853241 342.92373657
26.24887657 97.15026093 336.40197754
26.85223198 97.06469727 336.93347168
27.46386147 97.01250458 337.55395508
28.51133537 96.13928223 339.63690186
29.58405113 95.40497589 342.06124878
30.18433189 95.39253998 342.21237183
30.77148056 95.30767822 342.74111938
26.82273483 96.22557068 337.40158081
27.42358780 96.14099121 337.93212891
29.10226250 95.32159424 340.89700317
29.60195160 94.82070923 342.03070068
30.20220375 94.80828857 342.18182373
30.80171204 94.79553223 342.33496094
26.33295250 96.21474457 335.83294678
26.84111023 95.63516998 337.36968994
27.43284798 95.47798920 338.28488159
28.03113365 95.39385986 338.81542969
29.01916122 94.24859619 341.85003662
29.60869789 94.16516876 342.37686157
26.29346848 95.34135437 336.21405029
26.85116577 94.97206879 337.72335815
27.46021461 94.96114349 337.86941528
28.53546143 94.16142273 340.68658447
29.03706551 93.66413116 341.81951904
29.62663078 93.58135223 342.34738159
30.80007744 93.41513824 343.40408325
26.28280449 94.60931396 336.38864136
26.86950874 94.38206482 337.69146729
27.46053696 94.22743225 338.60580444
28.51355934 93.40399933 340.76870728
29.05500031 93.07965851 341.78897095
29.65571022 93.06735992 341.94003296
30.80553436 92.76262665 343.74935913
26.27191162 93.87816620 336.56326294
26.84786606 93.61936188 337.77517700
27.41998672 93.36180115 338.98229980
28.48159790 92.57682037 341.23056030
29.07307053 92.49520874 341.75842285
30.80739594 92.14783478 343.08114624
31.33820343 91.82655334 344.09771729
26.83407784 92.92752838 337.47436523
27.41743851 92.70565033 338.77151489
28.49960899 91.99166870 341.19995117
29.05011368 91.70532990 342.30548096
29.62876892 91.59020996 342.74642944
30.18652344 91.40703583 343.01132202
30.77213669 91.32597351 343.53933716
31.35588837 91.24462891 344.06832886
25.53245544 91.56572723 340.70074463
26.12933159 91.48647308 341.22268677
26.68515778 91.23715973 341.85739136
28.51766586 91.40654755 341.16842651
29.00724411 90.84942627 342.67758179
29.60610962 90.83676910 342.82873535
30.20434761 90.82395935 342.98089600
30.78995705 90.74349976 343.50888062
24.98495483 91.16177368 340.41223145
25.50505447 90.74365997 341.15878296
26.10115051 90.66508484 341.68078613
26.70333290 90.65375519 341.82592773
28.17746544 92.21026611 336.13104248
28.52599716 90.75344086 341.51663208
29.62390327 90.25371552 342.79827881
30.22212601 90.24089813 342.95043945
30.79560280 90.09405518 343.85339355
25.01586151 90.71195221 339.62200928
25.51677704 90.09289551 341.50415039
26.07970810 89.91234589 341.76211548
26.68163300 89.90087128 341.90826416
27.24302483 89.71976471 342.16830444
28.23605537 91.82553864 335.50155640
28.49366570 89.93189240 341.97576904
29.04302979 89.68321228 342.61666870
29.64181709 89.67055511 342.76776123
30.24005699 89.65767670 342.92092896
30.82552719 89.57814789 343.45001221
23.16968536 89.92050934 339.65762329
23.73311806 89.67408752 340.29037476
24.93782234 89.58670807 340.95159912
26.65997505 89.14854431 341.98965454
27.26107597 89.13677216 342.13681030
28.46166801 89.11245728 342.43508911
29.06092834 89.09993744 342.58624268
30.25789642 89.07439423 342.89050293
30.85554504 89.06124115 343.04458618
23.14936256 89.16580963 339.73889160
23.75150681 89.08972168 340.25686646
24.35708618 89.07916260 340.39898682
24.95605659 89.00264740 340.91906738
25.55332375 88.92594910 341.44015503
28.47964287 88.52920532 342.40460205
29.07894897 88.51681519 342.55471802
29.67764854 88.50399017 342.70687866
30.27579880 88.49105835 342.86099243
22.55720139 88.52552795 339.94403076
23.15983009 88.45040131 340.46112061
24.37549210 88.49449921 340.36648560
24.96857071 88.35341644 341.26452637
25.53206253 88.17382050 341.52154541
26.13442802 88.16250610 341.66668701
26.69615555 87.98220825 341.92672729
27.29718208 87.97041321 342.07489014
27.89777946 87.95826721 342.22299194
28.49761963 87.94599152 342.37310791
29.09691238 87.93345642 342.52429199
29.69568634 87.92067719 342.67739868
22.57907104 88.00573730 339.53250122
23.17433929 87.80187225 340.80554199
24.39389610 87.90986633 340.33389282
25.51050949 87.42208862 341.60296631
26.11270905 87.41069031 341.74807739
26.71435928 87.39902496 341.89526367
27.31542969 87.38710785 342.04339600
27.91577148 87.37500763 342.19256592
28.51562691 87.36262512 342.34265137
29.11496353 87.35010529 342.49380493
29.71358490 87.33722687 342.64691162
22.59089470 87.29249573 340.25585938
23.19278717 87.21832275 340.77301025
24.40165710 87.19721222 341.05636597
27.95158577 86.91869354 341.40887451
28.53377151 86.77916718 342.31216431
22.08565712 87.18152618 339.10040283
22.56718063 86.47754669 340.71331787
23.17217827 86.46719360 340.85348511
23.77667427 86.45662689 340.99465942
24.98411179 86.43470001 341.28094482
25.58692169 86.42349243 341.42608643
26.14924049 86.24407959 341.68515015
21.44525146 86.40283966 338.95449829
22.02171516 86.13426971 340.05062866
22.54041290 85.60292053 341.54293823
23.14397621 85.59234619 341.68411255
25.56542778 85.67224884 341.50750732
26.16739845 85.66067505 341.65365601
26.76892853 85.64891815 341.80081177
27.36981583 85.63682556 341.94992065
28.56986237 85.61219788 342.25018311
20.82744026 85.63187408 339.36471558
21.43128204 85.49792480 340.25601196
22.03760529 85.48800659 340.39419556
22.55887032 85.02077484 341.51046753
23.16242027 85.01022339 341.65167236
25.58990097 85.15061188 341.09884644
26.18570900 85.07718658 341.62213135
27.37976837 84.99172974 342.29360962
20.81850243 84.85411072 339.90933228
21.41123581 84.74764252 340.33554077
22.01464462 84.67649078 340.84982300
22.57734680 84.43864441 341.47814941
25.60200500 84.50531769 341.44351196
26.19016647 84.37165070 342.34112549
20.78359985 83.94748688 340.65301514
21.38735580 83.87720490 341.16638184
21.99187660 83.86692810 341.30453491
22.59591293 83.85643768 341.44476318
25.01773643 83.93317413 341.26586914
25.61401176 83.86136627 341.78726196
26.20843124 83.78914642 342.30966187
26.80852699 83.77722168 342.45782471
27.39972496 83.70487976 342.98120117
33.06026077 84.84426880 338.44931030
20.80095673 83.30506897 340.99478149
21.40593529 83.29502869 341.13296509
25.03630829 83.34961700 341.23437500
25.63241577 83.27828979 341.75582886
26.18603134 83.04039764 342.39123535
26.78597641 83.02835083 342.53936768
32.44786453 84.14299774 339.02886963
20.21520996 82.85101318 340.07373047
20.81961441 82.72291565 340.96133423
21.42269516 82.65374756 341.47384644
22.02396202 82.58451843 341.98724365
23.83918762 82.67003632 341.66412354
25.56340027 82.30391693 342.32577515
26.16364670 82.29202271 342.47290039
31.86335373 83.56622314 338.83993530
32.45248795 83.49172211 339.38223267
20.23277664 82.15050507 340.79077148
20.83825684 82.14052582 340.92791748
21.44135284 82.07198334 341.44036865
22.04260254 82.00325012 341.95382690
23.25493431 82.09849548 341.48849487
24.36990547 81.62915802 342.74871826
31.88139343 82.97581482 338.81002808
32.48397827 82.96221161 338.96908569
20.25215721 81.62615204 340.38198853
20.85702324 81.55814362 340.89447021
21.41899681 81.26786041 341.89340210
22.06122780 81.42192078 341.92144775
23.24197578 81.32903290 342.02963257
23.78775406 81.05950165 342.57223511
24.38830185 81.04809570 342.71633911
31.29624557 82.39872742 338.62112427
31.89958954 82.38536835 338.77914429
32.47511673 82.25216675 339.70693970
20.27027321 80.98581696 340.72290039
20.87578773 80.97568512 340.86105347
22.60343742 80.50088501 342.25354004
23.20509911 80.48985291 342.39566040
23.80617905 80.47843933 342.53982544
24.40671349 80.46705627 342.68402100
30.71074486 81.82150269 338.43316650
31.31454849 81.80821991 338.59121704
20.28970528 80.46017456 340.31408691
20.89444542 80.39321136 340.82760620
21.49931908 80.38280487 340.96673584
22.62200165 79.91977692 342.22116089
23.22356987 79.90872955 342.36331177
23.82466888 79.89732361 342.50750732
24.42506409 79.88591766 342.65164185
30.72896957 81.23092651 338.40222168
31.33271027 81.21756744 338.56030273
18.49120140 79.73817444 340.99728394
20.30847168 79.87700653 340.28063965
20.87388611 79.64631653 340.90725708
21.47679138 79.58004761 341.41986084
22.64053345 79.33867645 342.18777466
23.24210548 79.32747650 342.33093262
23.84306335 79.31616974 342.47512817
24.43865204 79.24913025 342.99179077
30.14286041 80.65328979 338.21533203
30.68126488 80.37787628 338.78366089
18.43354607 78.83026886 341.18722534
20.85321808 78.89989471 340.98699951
21.45442772 78.77922058 341.87307739
22.65906906 78.75745392 342.15542603
23.26062202 78.74623108 342.29855347
23.86162949 78.73485565 342.44277954
24.45721626 78.66834259 342.96044922
30.07364273 79.72721863 338.41839600
31.23334694 79.47338104 340.26260376
20.86988640 78.20867920 341.70056152
21.47305107 78.19804382 341.83972168
22.67764854 78.17610168 342.12301636
23.27921867 78.16487885 342.26623535
23.88008690 78.15348816 342.41040039
24.47562408 78.08758545 342.92807007
30.06023598 78.96824646 339.53613281
30.65086174 78.89888000 340.07473755
31.23956299 78.82956696 340.61236572
18.50832558 77.88531494 340.63180542
19.07792091 77.55107117 341.99774170
20.28500748 77.63795471 341.52804565
20.88866043 77.62741852 341.66714478
21.49163055 77.61677551 341.80636597
22.69625664 77.59483337 342.08969116
23.29778290 77.58344269 342.23388672
23.89857674 77.57204437 342.37796021
24.49908066 77.56042480 342.52416992
29.46596527 78.33727264 339.73089600
31.26964569 78.29742432 340.20208740
18.48996544 77.08712769 341.08416748
19.09680176 76.97100830 341.96441650
20.30378532 77.05656433 341.49462891
20.90737915 77.04603577 341.63381958
22.71779060 77.06666565 341.68368530
23.31627083 77.00208282 342.20043945
23.91715622 76.99052429 342.34564209
24.49797058 76.76651001 343.97930908
25.11723518 76.96699524 342.63894653
29.47425461 77.69448090 340.08078003
18.50892448 76.50592041 341.04977417
19.11557579 76.39089203 341.93008423
20.32259178 76.47527313 341.46029663
20.92501640 76.41217041 341.97207642
22.73927689 76.53733826 341.27664185
23.31019974 76.34706116 341.99481201
23.89489746 76.24600983 342.42651367
24.49491310 76.23427582 342.57263184
25.09442902 76.22228241 342.71978760
29.48264313 77.05298615 340.42968750
31.30605316 77.12113953 340.14160156
18.52773285 75.92460632 341.01541138
19.13445663 75.81063843 341.89678955
20.94482613 75.88325500 341.56607056
22.75795364 75.95458984 341.24423218
23.87236404 75.50192261 342.50732422
24.47221375 75.49007416 342.65347290
30.07085419 76.37461853 339.69534302
30.67956352 76.38088226 340.06787109
18.54511642 75.39469910 340.60836792
19.15251160 75.28173828 341.48980713
20.96368027 75.30167389 341.53265381
22.77662659 75.37173462 341.21075439
24.48610878 74.85774994 342.99291992
27.49875641 74.88668060 343.79275513
29.45151520 75.65422058 339.83914185
18.56568146 74.76171112 340.94760132
19.14559746 74.57637024 341.65490723
23.39437485 74.72637177 341.69616699
23.90935326 74.33928680 342.44158936
24.50454903 74.27690887 342.96054077
26.29855728 74.24004364 343.40802002
27.00131035 74.70522308 342.21325684
27.48398781 74.16407776 344.08416748
18.58151054 74.28098297 340.16482544
23.92788887 73.75785065 342.40927124
24.52311325 73.69603729 342.92822266
26.31693840 73.65904236 343.37673950
26.90669060 73.59651947 343.89971924
27.49455261 73.53388977 344.42373657
28.08041763 73.47103119 344.94876099
18.60041428 73.69815826 340.13034058
22.13995934 73.11264801 342.68603516
23.94646835 73.17642975 342.37683105
24.54610634 73.16442108 342.52401733
25.74376869 73.13993835 342.82232666
26.28661537 72.86719513 343.82955933
26.88251877 72.85452271 343.98175049
27.47027206 72.79254150 344.50476074
28.01365662 72.56919098 345.14123535
18.62103844 73.06594849 340.47067261
19.18878365 72.79668427 341.46667480
20.38207817 72.73814392 341.65689087
21.55799103 72.54366302 342.51052856
22.15656281 72.48374176 343.02459717
23.96501923 72.59477234 342.34445190
24.56467247 72.58271790 342.49255371
25.65532112 72.04199219 344.50030518
27.44593048 72.05165863 344.58587646
18.64003181 72.48352051 340.43618774
20.37408257 72.03358459 341.82302856
20.97565651 71.97437286 342.33602905
21.57679558 71.96329498 342.47717285
22.17529106 71.90384674 342.99133301
25.07303619 71.42803192 344.68786621
25.66235161 71.36807251 345.20599365
27.45663834 71.42450714 344.92462158
18.05093765 71.95946503 339.89077759
18.66068268 71.85295105 340.77557373
20.99449348 71.39392090 342.30273438
21.59552765 71.38273621 342.44488525
22.16603470 71.20154572 343.15658569
22.74962044 71.10495758 343.58547974
24.50031281 70.90884399 344.13845825
25.09141159 70.84960175 344.65563965
25.67497253 70.74346161 345.54183960
27.47495461 70.84533691 344.89434814
18.04664612 71.20619965 340.43072510
18.64003372 71.11080170 340.85455322
19.23204803 71.01566315 341.27740479
19.80961800 70.83546448 341.98803711
21.01399422 70.86042023 341.89648438
22.12891769 70.37771606 343.52047729
22.72716331 70.36605835 343.66470337
23.92214966 70.34204102 343.95803833
24.51869011 70.32981873 344.10623169
25.10481262 70.22476196 344.99346924
25.69903755 70.21216583 345.14364624
26.28633690 70.15331268 345.66293335
17.40898323 70.38986206 340.66024780
18.61926079 70.36912537 340.93252563
19.22471809 70.31207275 341.44259644
19.82854271 70.25494385 341.95373535
21.03281593 70.27922058 341.86309814
24.53280640 69.70485687 344.44305420
25.08105278 69.48743439 345.07272339
25.67508125 69.47477722 345.22390747
26.26228714 69.41649628 345.74322510
17.43111992 69.76242065 340.99780273
19.24373627 69.73097992 341.40823364
21.05167007 69.69797516 341.82971191
22.19468117 69.35582733 343.13299561
22.76441765 69.20768738 343.60018921
23.96282387 69.22899628 343.52346802
25.05721855 68.75054169 345.15307617
25.65098763 68.73777008 345.30429077
26.23820496 68.68027496 345.82263184
17.45021439 69.18128204 340.96234131
19.26151848 69.19510651 341.00088501
20.98789597 68.75289917 342.39425659
22.18836594 68.72972870 342.68161011
22.78299141 68.62847137 343.56692505
23.97764206 68.60444641 343.86029053
24.47713470 68.14134979 345.33883667
25.06607056 68.08470154 345.85522461
25.65852737 68.07201385 346.00640869
26.24436760 68.01522827 346.52380371
16.86781311 68.56564331 341.16488647
17.47525978 68.51091003 341.67105103
19.28165627 68.56829834 341.34051514
21.00559616 68.08425140 343.10116577
23.93757057 67.78417206 344.22448730
24.49548912 67.56409454 345.30673218
25.08447075 67.50798798 345.82406616
25.67685318 67.49527740 345.97534180
26.25662422 67.39564514 346.85897827
16.84747505 67.82701874 341.24203491
17.45769310 67.72888947 342.11932373
19.30070877 67.98690033 341.30609131
20.42459869 67.51627350 342.92572021
21.02376556 67.46145630 343.43704224
23.91633224 66.95639801 345.49258423
24.50979042 66.94393158 345.64178467
25.68433380 66.83291626 346.67568970
26.27488518 66.82003021 346.82791138
16.86671829 67.24673462 341.20571899
17.43721199 66.99174500 342.19656372
20.44355392 66.85115814 343.63076782
21.04187202 66.83972931 343.77294922
23.34078407 66.39192200 345.31228638
23.93117905 66.33742523 345.82675171
24.51989555 66.28262329 346.34222412
25.06919098 66.11286163 346.60299683
25.66007614 66.09996796 346.75524902
26.29310036 66.24430847 346.79687500
16.91813278 66.90915680 340.31561279
17.45630455 66.41244507 342.16229248
19.83583832 66.20744324 343.28396606
20.42143822 66.11543274 343.70910645
21.61730003 66.09220123 343.99551392
23.35929108 65.81510162 345.28015137
23.94976234 65.76109314 345.79461670
25.63575363 65.36746979 346.83383179
16.90478897 66.08475494 341.13803101
17.47536469 65.83297729 342.12707520
19.27764702 65.88411713 341.80117798
23.37787437 65.23815918 345.24801636
23.96816063 65.18473816 345.76263428
17.49121666 65.29479980 341.72256470
22.20514488 64.64500427 345.28683472
22.79719734 64.59238434 345.80038452
23.30651283 64.26749420 346.16885376
23.98309326 64.56776428 346.09683228
24.57524109 64.55522919 346.24707031
25.12412453 64.38598633 346.50894165
16.97224808 65.20391846 339.83609009
17.51351929 64.67387390 342.05850220
18.71338844 64.73355865 341.59332275
19.92029953 64.54862976 343.35476685
20.47788239 64.38063812 343.60852051
21.03467369 64.21240234 343.86334229
22.13735771 63.67721176 346.20574951
22.72800064 63.62555313 346.71640015
23.31952286 63.61322403 346.86462402
25.09987640 63.65407944 346.58752441
16.35958672 64.51287079 339.86624146
16.99519730 64.58013916 340.17486572
17.54886246 64.33312988 340.71060181
18.73239136 64.15272522 341.55895996
20.45526314 63.68546295 343.31860352
21.05301285 63.59458542 344.19750977
21.60522270 63.30943298 345.55050659
22.15434074 63.06336594 346.53713989
22.74650192 63.05110550 346.68441772
23.33788681 63.03876495 346.83267212
16.33267975 63.65458298 340.60269165
16.94159698 63.60433960 341.11114502
17.54541588 63.59357071 341.24728394
18.14867210 63.58279419 341.38543701
18.75147438 63.57173920 341.52459717
21.07179642 63.01689911 344.16433716
21.60991096 62.68160248 345.55566406
22.17294884 62.48881912 346.50518799
22.76495743 62.47655106 346.65246582
23.35643387 62.46421814 346.80068970
23.94730186 62.45154190 346.95089722
16.35653687 63.03403854 340.93963623
16.96082878 63.02338409 341.07580566
17.56457329 63.01256943 341.21292114
18.16786003 63.00167465 341.35104370
18.77059937 62.99072266 341.49020386
19.97461891 62.96823502 341.77255249
20.57588005 62.91771698 342.28607178
21.59979057 61.96417999 345.96154785
22.19149590 61.91434097 346.47219849
22.78347397 61.90200424 346.62045288
23.37491989 61.88959122 346.76867676
23.96581841 61.87700653 346.91894531
16.37586212 62.45299530 340.90423584
16.98006058 62.44234848 341.04043579
18.18703270 62.42057419 341.31668091
19.99362373 62.38703156 341.73815918
20.59470367 62.37560654 341.88128662
21.61843109 61.38893509 345.92950439
22.21014786 61.33959198 346.44024658
22.80211258 61.32726288 346.58850098
23.39342117 61.31491852 346.73672485
23.94158173 61.14760590 346.99771118
15.79046631 61.88241577 340.73376465
16.39512253 61.87184143 340.86889648
17.00703430 61.78543472 341.74679565
18.20622063 61.83943176 341.28131104
19.40958405 61.85509109 341.19018555
20.01265907 61.80575943 341.70477295
20.61381340 61.75628662 342.21942139
21.04373550 60.86230469 345.38674927
21.63714600 60.81364059 345.89648438
15.80468178 61.33866882 340.32589722
16.36964417 61.00964737 341.72430420
16.95313263 60.82155228 342.67480469
17.60584831 61.04178238 342.41708374
19.38842964 61.07991409 341.64187622
19.98981667 61.06855011 341.78405762
21.06246758 60.28641129 345.35369873
21.65584755 60.23835754 345.86349487
22.24733543 60.19005585 346.37527466
15.75877571 60.33707428 341.62936401
16.37568474 60.21771240 342.87094116
16.98019409 60.17069244 343.37557983
17.57969856 60.15962219 343.51376343
21.63226509 59.50889587 345.94226074
22.22361183 59.46133423 346.45306396
15.78864670 59.68606949 342.33200073
16.36946869 59.52538300 343.03274536
16.95875168 59.43938828 343.45214844
17.59881401 59.58216095 343.47857666
21.87730408 60.24513245 339.79269409
22.19984436 58.73294830 346.53189087
15.80796242 59.10738754 342.29577637
16.33768272 58.71959686 343.39163208
16.93706322 58.70848083 343.52883911
17.53609467 58.69718933 343.66702271
21.71284103 58.54604340 345.40167236
24.08005714 58.46199417 346.36431885
15.82728195 58.52856827 342.26153564
17.64357567 58.35808945 344.14349365
