ply
format ascii 1.0
comment PCL generated
element vertex 1596
property float x
property float y
property float z
element camera 0
property float view_px
property float view_py
property float view_pz
property float x_axisx
property float x_axisy
property float x_axisz
property float y_axisx
property float y_axisy
property float y_axisz
property float z_axisx
property float z_axisy
property float z_axisz
property float focal
property float scalex
property float scaley
property float centerx
property float centery
property int viewportx
property int viewporty
property float k1
property float k2
end_header
15.081379 42.56599 338.7475
14.718843 42.650955 340.00107
14.301548 42.60458 341.15671
13.87747 42.707035 341.62531
13.18839 42.654312 342.56891
12.652752 42.850636 344.51315
10.037072 42.470119 344.52097
9.5539217 42.440411 344.87863
8.8064861 42.40456 345.01794
18.163694 41.844902 335.09006
17.750185 41.944958 335.5621
17.282919 41.915405 335.93375
16.81498 41.885723 336.30447
15.61156 41.82093 336.83841
22.975151 43.381474 345.48105
14.267444 41.914284 341.06982
13.894801 42.148117 341.63977
13.472843 42.100498 342.79749
12.617558 42.15591 344.42322
10.619414 42.010792 345.03857
9.5700626 41.880745 344.89148
8.8226118 41.845398 345.03091
8.0754023 41.810055 345.16852
17.769459 41.391006 335.57877
17.302193 41.361324 335.95029
16.834299 41.331562 336.32114
16.364956 41.301838 336.69049
15.36465 41.26199 336.64856
14.954586 41.212589 337.79535
23.019176 42.657879 346.21576
14.703024 41.404984 339.93048
13.912989 41.589119 341.65497
12.58302 41.461403 344.33395
11.084098 41.39109 344.62265
10.335503 41.356106 344.76462
9.5869389 41.321018 344.90509
9.1033144 41.291191 345.2619
8.0915565 41.25119 345.1814
17.788794 40.836842 335.5954
17.321634 40.807076 335.96689
16.852903 40.777283 336.3371
16.118349 40.742794 336.50192
15.383325 40.708408 336.66446
14.9134 40.678665 337.03152
22.757854 42.078701 346.01154
14.303708 40.797077 341.10004
13.878243 40.898502 341.56717
12.868873 40.904633 344.5654
11.100883 40.830357 344.6362
10.300792 40.663605 344.67407
9.5523014 40.629013 344.81439
8.8762407 40.552063 344.99185
8.057085 40.5602 345.09058
17.874468 40.261093 336.39224
17.138636 40.226986 336.55847
16.085115 40.059631 336.41827
15.350121 40.025646 336.58078
14.880424 39.99572 336.94763
21.454428 41.459713 345.74667
14.264291 40.260006 340.32715
13.900708 40.186481 342.27063
12.886441 40.342415 344.5798
11.868218 40.303738 344.50745
10.00182 39.967552 344.3678
9.5183811 39.937428 344.72443
8.7703905 39.903362 344.86285
8.023284 39.869503 345.00046
15.31693 39.343086 336.49704
14.847432 39.312962 336.86368
21.473396 40.888325 345.76276
20.711191 40.853367 345.92035
13.862417 39.649326 341.49521
13.384372 39.619156 341.85925
12.903247 39.77998 344.59357
12.152104 39.746033 344.73822
10.018006 39.407879 344.38074
9.5345526 39.377663 344.7374
9.0505781 39.347538 345.09308
7.069561 39.250309 345.71817
15.601231 38.792576 336.71838
14.865269 38.759354 336.87888
14.290686 38.959881 338.01642
21.772924 40.32114 346.00055
20.842337 40.106846 345.94171
20.135923 39.984726 346.1001
13.879749 39.09021 341.5097
13.401794 39.060028 341.87366
12.922436 39.029739 342.23624
12.278903 39.010387 344.7579
10.566123 38.854015 344.82846
9.5513659 38.817947 344.75098
9.0673923 38.787701 345.10675
8.0971375 38.727051 345.81491
7.0857615 38.69136 345.73099
16.962769 38.354866 334.85461
16.230261 38.322063 335.02023
15.35407 38.236023 336.52887
14.883793 38.205673 336.89487
14.412951 38.175304 337.26007
13.992786 38.273788 337.72467
20.917799 39.447906 345.96063
20.154903 39.413837 346.11621
13.897783 38.531006 341.52496
12.674029 38.467834 342.03809
10.098861 38.26273 345.19949
9.0835199 38.227642 345.11969
8.5989952 38.197376 345.47452
8.1132793 38.166992 345.82782
6.8390546 38.130001 345.52527
16.981947 37.801994 334.8714
15.517033 37.737373 335.20099
14.902332 37.651886 336.91089
14.167405 37.619591 337.0704
20.174513 38.842869 346.133
13.023326 37.807377 342.26865
14.084374 37.892673 343.91724
10.1149 37.70166 345.21255
9.3652411 37.669441 345.3512
8.6151686 37.637215 345.48746
7.8153334 37.474167 345.51758
6.6386204 37.41354 345.28308
17.054224 37.164494 334.8887
16.16457 36.962276 334.85477
15.69733 36.931599 335.22189
15.228809 36.900997 335.58765
14.811061 36.998028 336.05261
14.077964 36.966198 336.21307
12.871751 37.091244 342.07373
12.392179 37.060528 342.43506
10.397814 37.141827 345.44434
9.6463099 37.109947 345.58212
7.5186968 36.78289 345.20883
6.5104256 36.750401 345.12582
16.714069 36.411503 335.27646
15.71573 36.379215 335.23801
15.247164 36.348495 335.60373
14.251735 36.316502 335.56232
13.78257 36.285885 335.92575
19.751692 37.461136 344.91666
19.655985 37.696659 345.72391
9.9288149 36.5494 345.8143
8.9118929 36.517239 345.73172
7.5348368 36.223923 345.22171
6.5258145 36.19241 345.13809
16.732319 35.858002 335.29269
15.999331 35.82687 335.45737
15.266327 35.79583 335.62051
14.270102 35.764709 335.57849
13.800265 35.733963 335.94116
13.330536 35.70322 336.30377
19.771191 36.891865 344.93359
19.011139 36.860062 345.08743
12.907104 35.972404 342.10358
12.211823 36.070763 342.35358
11.41564 35.910423 342.39709
9.0472422 35.852116 345.79242
7.8137197 35.664768 345.45181
6.8034148 35.634224 345.3681
17.60359 35.431187 336.02109
16.282799 35.273418 335.67673
15.549442 35.24279 335.84027
14.814739 35.2122 336.00095
13.818587 35.182076 335.95724
13.348216 35.151218 336.31915
12.613979 35.174046 337.24396
12.444818 35.381985 342.47937
11.698109 35.351456 342.62509
7.830534 35.10503 345.46552
6.8186984 35.075447 345.38037
16.834085 34.718102 336.10114
15.567782 34.689381 335.85648
14.833201 34.659206 336.017
14.099428 34.629047 336.17657
19.422508 35.490696 344.53406
12.410616 34.693184 342.38968
11.715395 34.792015 342.63965
7.8465538 34.545166 345.47852
6.7144241 34.430759 345.25116
16.116688 34.13332 336.28043
14.994048 34.021019 336.10248
14.171841 33.991642 336.19382
13.387522 33.886349 337.02014
12.96582 33.981884 337.48196
12.019324 33.919807 338.2016
11.681344 34.103745 342.5498
8.8763199 34.013054 345.57471
7.8626051 33.985203 345.49155
7.1124744 33.955982 345.62338
11.562209 33.335003 338.57483
11.862718 33.449245 341.88971
11.382456 33.418007 342.2475
11.002643 33.643829 342.81223
8.8930159 33.452007 345.58844
7.6157537 33.427246 345.28732
12.054006 32.812138 338.23175
10.968558 32.956329 342.72226
8.9089479 32.89085 345.60162
7.8945704 32.864986 345.5177
14.325897 32.227367 337.01392
13.441872 32.226059 337.06784
12.918526 32.068695 337.32684
12.445239 32.037243 337.68594
11.97128 32.005894 338.04437
10.935116 32.269184 342.63312
10.144969 32.488804 346.70477
8.1741533 32.301548 345.74869
6.9735756 32.205166 347.01645
13.199425 31.511467 337.5477
11.989041 31.452171 338.05969
11.038589 31.389275 338.77316
10.661742 31.610174 339.33212
9.7379436 31.757353 346.28391
8.4546099 31.737011 345.98022
6.9896607 31.64361 347.02948
18.738739 31.901882 342.38089
12.006619 30.898355 338.07523
11.269503 30.871088 338.22522
10.678649 31.05574 339.34695
10.486662 31.11949 343.01703
6.1025343 30.77903 342.29462
8.5785789 31.109161 346.05038
7.516253 30.940201 346.62518
7.0049987 31.081917 347.04184
18.430569 31.211979 342.07831
12.55088 30.334932 338.50427
11.287126 30.317589 338.24072
10.550112 30.290829 338.38922
10.122792 30.384899 338.84393
9.9746571 30.569483 342.60361
7.0007086 30.163206 342.24576
6.0001969 30.142036 342.16888
8.7025642 30.480928 346.12048
17.643734 30.491707 342.14478
12.567652 29.779902 338.5192
11.304015 29.763954 338.25552
10.566971 29.737696 338.40405
5.7791767 29.423292 341.90347
17.935143 29.921978 342.37521
16.909639 29.900425 342.31433
10.795889 29.053715 338.52377
10.153195 29.109377 339.5415
9.6757689 29.077812 339.89493
16.084051 29.885979 347.04434
6.3128943 28.857088 342.34058
16.928085 29.336132 342.33072
16.175035 29.309935 342.48141
11.025054 28.368723 338.64334
9.6927223 28.523176 339.90964
15.154371 29.249897 346.25256
5.320323 28.667591 340.17975
7.0706635 28.326925 342.21896
6.0692878 28.308826 342.14142
5.1346889 28.624315 345.35178
16.464891 28.739672 342.7121
15.711639 28.713964 342.86151
9.9261045 28.007069 339.36328
7.0871463 27.771368 342.23288
6.085691 27.754274 342.15536
5.0860648 27.737228 342.07596
5.0539823 27.812901 345.15515
15.729979 28.14987 342.87793
9.9973164 27.367321 339.37903
9.6278267 27.164408 339.73318
8.7671652 27.350061 340.64053
14.178162 27.922455 346.1344
7.1028652 27.215803 342.24606
5.9827986 27.118862 342.02875
4.7960033 27.066448 341.77405
4.1584229 27.081753 342.00977
17.299608 27.583965 344.91595
14.196019 27.355257 346.14996
5.7619371 26.403624 341.76291
4.7650075 26.38876 341.685
4.2821517 26.357231 342.02664
17.191307 26.933306 344.78818
16.158669 26.916943 344.71719
13.670304 26.804159 345.72629
12.912583 26.780315 345.86588
6.874136 26.11286 342.06085
5.2953482 25.817953 342.12009
4.2971616 25.804245 342.03909
3.8145645 25.77273 342.3804
16.39753 26.214218 344.84314
15.41855 26.325888 344.87848
10.082873 25.689455 340.96359
13.687428 26.237719 345.74124
12.929002 26.214367 345.88004
7.0317798 25.468361 342.14694
6.1707277 25.366001 342.14078
5.311048 25.26388 342.1333
4.8275833 25.232153 342.47552
3.8295901 25.219543 342.39288
16.398115 25.604378 344.82315
15.164148 25.768116 344.67633
13.384536 25.376225 346.11789
8.5723381 25.193413 343.57462
6.0685968 24.731518 342.01477
5.3266869 24.709614 342.14655
4.8432226 24.677879 342.48874
4.1015372 24.656281 342.61737
15.565829 25.017113 344.91138
13.832886 25.072428 344.29547
10.162012 24.523418 341.76746
12.860611 24.829388 345.69501
7.9671431 24.405252 342.95325
6.3431888 24.166325 342.23953
5.3416538 24.155323 342.15906
4.8581734 24.123587 342.50125
4.0001025 24.023508 342.4906
15.36758 24.372877 344.71097
14.553931 24.438015 344.85284
13.582359 24.338825 344.77844
9.4002323 23.860981 341.85083
12.339843 24.284523 345.27457
6.9034972 23.651014 342.72989
5.6166134 23.589947 342.38486
4.8738594 23.56912 342.5145
14.898682 23.773359 345.08682
13.599373 23.773491 344.7934
12.842958 23.751991 344.93301
12.356076 23.719564 345.289
6.374382 23.055387 342.26617
5.6315217 23.034948 342.39746
4.888751 23.014538 342.52704
4.4049196 22.982784 342.86832
14.377348 23.048227 345.35336
12.808696 23.061893 344.84048
11.834076 22.996929 345.55042
5.9064407 22.467869 342.62335
5.1626611 22.44792 342.75259
9.108551 22.064987 342.31458
7.2357574 22.030088 343.03589
6.1815295 21.89959 342.84906
5.4373074 21.880125 342.97885
4.2378426 21.771868 344.21396
8.696517 21.388016 342.6781
7.9495974 21.368574 342.8121
7.203042 21.349348 342.94434
6.4574313 21.330242 343.0755
5.7120323 21.311138 343.20496
4.2529073 21.215382 344.22647
8.9757986 20.816145 342.90546
7.9651546 20.810699 342.82556
6.5788841 20.741787 342.39221
5.9050674 20.677788 342.55823
5.4678149 20.768263 343.00479
5.0143843 20.677118 344.11417
4.2678337 20.658888 344.23901
8.506772 20.224607 343.26675
6.6659894 20.140112 342.44217
5.6144371 20.013798 342.25537
4.2828531 20.102203 344.25159
7.4739351 19.723566 342.42813
6.3733749 19.476164 342.13855
5.6299262 19.458622 342.26886
4.2977962 19.54541 344.26419
7.4893227 19.166391 342.44171
6.7679024 18.981451 342.50482
5.6455073 18.903246 342.28223
4.4168177 18.854214 342.74936
3.931473 18.822224 343.08777
6.9260588 18.333076 342.59048
5.6610737 18.347872 342.29565
4.6905255 18.283495 342.97513
6.6807084 17.79237 342.39154
5.9354234 17.776173 342.52072
5.4504795 17.743902 342.86166
4.9643731 17.711679 343.20099
3.9612281 17.712137 343.11304
7.2180305 17.202257 342.82993
6.2114258 17.203331 342.74707
5.4653144 17.187696 342.87436
4.9791927 17.155483 343.21362
4.2346959 17.140209 343.33926
8.1641064 16.957388 343.80154
6.4866676 16.629345 342.97287
5.7409673 16.614227 343.10114
4.9947147 16.599216 343.22708
4.2495141 16.584423 343.35193
8.522646 16.066044 343.15326
7.9250336 16.2068 343.49664
5.7557435 16.057343 343.11392
5.0095348 16.042915 343.23984
4.5229549 16.010698 343.57809
8.052124 15.473869 343.51169
7.0880504 15.598845 343.53262
6.5535016 15.445356 343.76849
4.5376992 15.454209 343.59082
7.804987 14.933218 343.31161
5.8201346 14.873181 343.90771
4.8120308 14.878802 343.81766
7.7730761 14.253794 343.21915
6.5845137 14.328105 343.7955
4.5673714 14.34111 343.61633
6.9923921 13.561976 343.25522
6.5993094 13.769412 343.80838
5.6563931 13.631662 345.258
6.6147323 13.210532 343.82196
5.6719713 13.071784 345.27142
4.658649 13.08075 345.17526
3.9374487 12.995675 346.06369
7.6429973 12.642371 343.92368
6.583262 12.531919 343.7291
5.6862054 12.511765 345.2836
4.673491 12.521856 345.18802
3.9524906 12.436188 346.07626
5.7010202 11.951675 345.29639
4.9495788 11.941003 345.41742
4.2271457 11.854692 346.30573
5.7166142 11.3915 345.30984
4.964438 11.381413 345.43021
4.2421594 11.294503 346.31839
6.7474623 10.818308 345.41769
5.9461627 10.689024 345.43091
4.9785342 10.821596 345.44226
5.2695203 9.6780472 345.6846
4.5775843 9.5091438 347.34601
5.9201541 9.0546656 345.4346
5.2381263 8.9987354 345.59018
4.0684137 8.9962225 346.91974
5.6980739 8.3524246 345.15976
5.2068381 8.3198471 345.49561
4.7144871 8.287344 345.8299
3.8210433 8.4601583 346.71252
5.7128439 7.7921619 345.17264
5.2532029 7.6758509 346.27771
6.5631037 7.271924 345.94461
5.0061994 7.1406193 346.07294
4.2514906 7.1343951 346.18866
3.6150861 7.1984468 346.44763
5.7752657 6.5855765 345.96765
5.0210776 6.5796847 346.08572
4.2656646 6.5739717 346.20065
3.5120971 6.568418 346.31522
5.2971539 5.9914622 346.31537
4.2805567 6.0134964 346.21341
3.2667804 6.0356312 346.11008
6.2234511 5.4795694 346.37442
5.3120799 5.4298563 346.32813
4.5563598 5.4251528 346.44345
3.540489 5.4484339 346.33917
5.8198137 4.9007258 346.00623
5.2807441 4.7510519 346.23227
4.5712533 4.8640118 346.45615
3.554708 4.8883314 346.35126
4.277689 4.2147484 346.14157
2.6994941 4.1810656 345.4968
2.8303506 3.6166019 344.82037
1.6803105 3.7396693 344.64511
4.543025 2.9979692 334.68777
30.194744 108.58723 336.6116
30.050411 107.66444 335.90399
29.328403 107.66234 336.64758
29.694584 106.99082 335.93375
29.252707 106.8989 336.61429
29.204124 106.88667 337.25937
29.617924 106.22835 335.90005
29.176945 106.13648 336.58047
28.734087 106.04555 337.25949
29.542194 105.46494 335.86612
29.100239 105.37403 336.5466
28.658249 105.28416 337.22549
29.137812 104.78107 336.54095
28.695728 104.69119 337.21994
29.176331 104.1882 336.53528
28.733349 104.09826 337.21426
29.608526 103.66997 336.49445
29.164457 103.58096 337.17435
29.02183 102.66427 336.46625
29.086683 102.81848 337.13968
28.617363 101.98243 337.13956
28.262308 101.31684 337.16864
29.292271 100.9983 335.17471
28.401796 100.75452 335.87686
27.51853 100.57986 337.23196
28.881472 100.2493 335.19156
27.659067 100.01891 335.94287
27.556023 99.9879 337.22656
28.920019 99.656601 335.18594
28.246969 99.236801 335.80756
27.531572 99.245926 336.55014
27.479076 99.229973 337.19177
27.605036 98.535797 334.59076
27.454561 98.488564 336.51547
27.013275 98.402451 337.19144
27.690996 97.960625 333.94363
26.868044 97.806793 334.65945
27.882826 97.967056 336.4747
27.050795 97.811638 337.18604
27.730473 97.370186 333.93823
27.921389 97.375168 336.46927
27.477081 97.289536 337.14618
27.381214 96.711487 333.97061
26.171267 96.491859 334.72272
27.569099 96.714691 336.49924
27.515659 96.697922 337.14066
27.691923 96.02401 333.89822
26.367382 95.642136 334.62265
27.606579 96.123169 336.49393
27.553183 96.106079 337.13544
27.179533 95.185966 334.54254
29.444084 95.947739 339.56412
27.217972 94.595764 334.5372
28.969421 95.118034 339.5603
28.910034 95.099525 340.20398
26.869576 93.940125 334.56943
27.434727 94.000877 337.05917
28.947866 94.375435 338.87997
29.007093 94.522865 339.55518
28.946745 94.504166 340.1987
26.083649 93.203667 335.27747
28.474993 93.549385 338.87677
27.045258 92.794579 333.27866
26.22551 92.43972 335.20807
28.512648 92.955162 338.87161
28.061268 92.871216 339.54712
26.197235 91.915909 333.32144
25.876736 91.681725 335.84595
26.506935 91.227463 333.24811
26.071478 91.147415 333.92557
25.915199 91.092583 335.84076
24.53438 90.706245 337.19101
25.035116 90.805283 339.05426
26.932434 90.700432 333.20389
26.110918 90.558723 333.92038
25.290342 90.417267 334.63376
25.897158 90.484451 336.47394
24.074881 89.895798 337.19
23.251076 89.754257 337.8934
23.190676 89.734314 338.52725
26.970825 90.110603 333.19873
26.149258 89.969933 333.91516
25.32865 89.829445 334.6286
25.936598 89.895081 336.46866
23.614368 89.087036 337.18884
22.881662 88.913467 337.86981
22.238083 88.706146 338.52661
27.396376 89.581551 333.15445
26.457058 89.279839 333.84167
25.252319 89.080185 334.59323
25.472178 89.082954 336.46857
23.096292 88.260094 337.82123
22.274263 88.121338 338.52176
26.765957 88.588715 333.76761
24.792833 88.272072 334.59586
23.574215 87.753448 337.14774
23.017725 87.51355 337.78461
22.371428 87.431534 338.47778
24.627254 87.558464 334.5831
23.809349 87.421989 335.29254
23.347136 87.149567 335.91034
23.992718 87.225227 337.10767
21.803358 86.595016 337.85095
24.257734 86.719185 334.56256
23.441824 86.584221 335.27155
23.384399 86.564011 335.9053
23.326946 86.54361 336.53906
22.507887 86.408218 337.24237
21.839489 86.011017 337.84592
21.991489 86.200142 339.13947
24.67729 86.18985 334.51974
23.479101 85.99865 335.26663
23.422703 85.978294 335.90042
23.364227 85.957733 336.53409
22.430382 85.663773 337.20624
21.498392 85.370644 337.87534
21.371523 85.327461 339.1362
24.716619 85.602707 334.51477
22.353807 84.919708 337.16989
21.536537 84.787155 337.87018
20.341938 84.599037 338.60107
23.992338 84.903519 334.58527
22.390932 84.335022 337.16495
21.950161 84.258255 337.83115
20.468878 83.859627 338.53802
24.295179 84.213318 334.51163
23.858486 84.137398 335.18365
23.305906 83.902405 335.82324
23.246397 83.881027 336.45651
22.428194 83.750053 337.16006
22.365801 83.728279 337.79202
20.940311 83.226166 338.46063
20.122953 83.096016 339.15607
23.781927 83.392212 335.14758
23.343157 83.316544 335.81836
22.905344 83.240982 336.4874
22.403049 83.143127 337.78714
21.353022 82.696342 338.42206
20.159094 82.513725 339.15131
30.775656 84.670219 334.08215
29.424809 84.319199 334.8103
24.084332 82.758812 335.72397
22.942518 82.655365 336.48267
28.774612 84.235992 336.79935
22.034174 82.311272 337.76248
21.01367 82.059624 338.45102
20.19519 81.931313 339.14658
28.745419 83.753532 335.55585
21.868336 81.603584 337.74768
21.049891 81.476105 338.44629
26.808924 82.449951 334.33478
23.397614 81.536369 336.43726
21.905491 81.018997 337.74292
20.884886 80.770546 338.43106
19.665016 80.400841 339.10501
26.521927 81.699875 334.32803
26.081205 81.62542 335.00418
26.023882 81.603729 335.64182
23.434942 80.949898 336.4325
23.374596 80.927475 337.06573
21.942801 80.434349 337.73816
20.518698 79.943848 338.40533
18.955894 79.718376 339.16638
18.141142 79.594048 339.85681
26.354385 80.986038 334.31485
26.062334 81.013298 335.63696
23.473337 80.363281 336.42776
23.411955 80.340691 337.06107
21.980062 79.849487 337.73346
20.179304 79.310776 338.43475
18.505318 78.931976 339.16205
18.064161 78.858498 339.81937
25.979694 80.149994 334.29321
25.156387 80.025406 335.00616
25.098059 80.003036 335.64212
23.449255 79.753716 337.05646
22.394876 79.314735 337.69406
18.867449 78.268959 338.46591
18.428337 78.19619 339.1246
17.987165 78.123322 339.78189
25.578365 79.487274 334.96359
25.136522 79.414101 335.63748
23.752302 79.05954 336.98355
25.722719 79.447121 337.474
19.765923 77.941605 338.4263
18.464428 77.616203 339.11993
18.023209 77.543732 339.77725
25.617716 78.89769 334.95889
24.792343 78.774971 335.66986
23.293066 78.265274 336.98203
25.761219 78.856316 337.46939
19.313253 77.155807 338.42264
18.500458 77.03598 339.11539
18.058247 76.963882 339.77271
17.987749 76.939293 340.39661
26.867188 78.479729 334.20139
26.425406 78.407417 334.87817
24.830746 78.186256 335.66522
25.798803 78.265358 337.46469
19.349455 76.574478 338.41806
18.536428 76.455688 339.11084
18.094231 76.383942 339.76816
26.906696 77.888321 334.19675
26.079308 77.767227 334.91168
25.430239 77.574135 335.57684
31.122194 78.957947 335.87198
24.655556 77.333862 337.5101
19.012718 75.946426 338.44757
18.373205 75.756805 339.09512
18.016224 75.649437 339.7301
26.117807 77.17672 334.90714
26.05954 77.15361 335.54431
24.995071 76.719185 336.18884
24.932795 76.695412 336.82425
24.105118 76.575821 337.5303
17.939178 74.915283 339.69199
25.154051 76.177071 334.91327
23.744463 75.892067 335.65125
23.555605 75.820084 337.55069
19.832478 74.875534 338.37039
19.390265 74.805061 339.03067
25.192457 75.587845 334.90878
21.862469 74.882462 335.77588
19.295433 74.130508 338.38916
18.938559 74.023895 339.02594
18.496204 73.954147 339.68411
23.473047 74.503448 334.99048
22.276377 74.343018 335.73477
18.930864 73.314194 338.36261
18.489609 73.244873 339.02127
23.132586 73.87178 335.02396
21.70575 73.404404 335.70129
21.642427 73.379692 336.3309
20.010349 73.153267 337.73035
18.967005 72.733177 338.35831
17.783808 72.577507 339.08389
21.680635 72.795273 336.32651
19.445408 72.220528 337.69357
19.004028 72.151993 338.35388
17.81991 71.997864 339.0795
23.118099 72.483032 335.59018
21.717884 72.21051 336.32208
21.276678 72.142242 336.98755
19.482512 71.638756 337.68918
19.04023 71.570694 338.34952
17.855818 71.418045 339.07532
22.574196 71.736328 335.61334
21.756123 71.625763 336.31781
21.314901 71.557899 336.98322
19.077255 70.989189 338.34525
18.519695 70.768822 338.96957
17.449516 70.770424 339.72702
22.548222 71.125145 336.23999
21.352118 70.973343 336.97885
19.928675 70.516312 337.64551
19.371191 70.296402 338.27209
18.071676 69.994751 338.96463
16.890135 69.846207 339.68719
23.407639 70.647919 335.5296
22.586557 70.53891 336.23566
22.143303 70.471764 336.90259
18.17901 69.440811 338.3371
17.367567 69.33403 339.02795
16.92613 69.267479 339.68298
16.482588 69.20079 340.33655
22.312162 69.937256 335.63782
22.181591 69.885788 336.89825
17.846052 68.820938 338.36722
16.734602 68.386055 339.60944
16.517609 68.622223 340.33246
22.147022 69.236282 335.6236
21.773588 69.233185 337.55978
17.882082 68.241005 338.36304
22.154415 68.460381 335.56161
21.577616 68.342102 337.4866
17.803915 67.510117 338.32443
17.362383 67.444862 338.98077
16.806578 67.228851 339.60101
16.363033 67.163429 340.25446
16.285597 67.135941 340.87457
26.153469 68.870369 334.71655
21.37536 67.770744 336.26117
17.357544 66.741913 338.32013
17.284153 66.714645 338.94196
16.842577 66.64991 339.59689
16.39802 66.584953 340.25037
16.321608 66.557449 340.87042
24.979761 68.133942 335.46298
21.413616 67.18602 336.25705
20.970219 67.121193 336.92188
19.104677 66.613052 338.24698
17.32122 66.135376 338.93784
16.87854 66.070992 339.59268
16.433954 66.006424 340.24622
24.460028 67.275444 335.44534
21.826921 66.63887 336.21606
21.00745 66.53672 336.91779
18.168936 65.65625 338.24265
17.726397 65.592209 338.89966
17.28282 65.528152 339.55536
25.2036 66.685921 335.34772
23.993166 66.545166 336.095
21.304586 65.837914 336.84247
18.277367 65.103043 337.61545
17.466606 65.003677 338.30795
17.393246 64.976105 338.92969
17.31885 64.948326 339.55133
17.242437 64.920448 340.17276
17.166086 64.892494 340.79401
24.740772 65.905357 335.34711
23.913389 65.804024 336.05612
17.945238 64.487091 337.64673
17.021065 64.239517 338.30347
16.579468 64.176544 338.9584
16.389688 63.999298 339.54327
23.833584 65.063148 336.01703
18.351503 63.941681 337.60733
16.57645 63.477062 338.2991
16.13476 63.414738 338.95325
15.69302 63.352329 339.60602
23.919291 64.385063 335.97675
22.66728 64.339684 336.75589
16.612417 62.898647 338.29523
16.171745 62.836773 338.94931
15.729029 62.774796 339.60208
21.669569 63.973034 344.93631
22.704657 63.752201 336.75195
18.026409 62.558823 337.5762
16.649328 62.320168 338.29129
16.207649 62.258633 338.94534
15.7649 62.197067 339.59811
21.705011 63.383984 344.93225
23.502508 63.233997 336.67422
17.422068 61.807007 338.21744
16.243689 61.680389 338.94147
15.800924 61.619335 339.59433
21.123549 62.456772 344.88037
23.421692 62.494301 336.63458
22.381176 62.426155 337.3746
17.459135 61.227119 338.21359
16.325827 61.014164 338.90247
15.836857 61.041386 339.59052
15.645047 60.864819 340.17303
22.962503 61.721912 336.63217
22.136757 61.627476 337.33545
16.299471 60.201561 340.0668
15.715055 60.405434 340.82358
22.2213 60.951241 337.29529
21.725489 60.97953 337.99622
17.456907 60.038071 338.82733
16.40464 59.859547 341.37442
20.380867 60.110943 334.93402
20.312593 60.082626 335.56003
21.599434 60.122616 337.29193
21.762897 60.39275 337.99246
21.689682 60.364079 338.62057
16.818291 59.103058 339.40567
16.37151 59.043514 340.05896
15.925673 58.984062 340.71069
15.591268 59.071724 341.39764
15.508876 59.042175 342.01538
19.931387 59.349121 334.93378
19.489651 59.289902 335.59665
19.303904 59.113548 336.18573
21.396854 59.656616 338.61578
18.078272 58.760689 339.33624
16.407568 58.464283 340.05518
15.961576 58.405228 340.70682
15.512749 58.346062 341.35724
15.43037 58.316315 341.9747
25.909452 59.969418 333.9256
19.111246 58.559097 334.97202
19.270813 58.502308 336.80594
21.153252 58.86142 338.5751
18.229799 58.326118 339.36914
16.444588 57.884995 340.05136
15.996689 57.826344 340.70316
15.548804 57.767628 341.35339
25.623516 59.239002 333.91748
19.033972 57.830666 334.93295
18.594213 57.772678 335.59439
18.567099 57.861385 336.87555
16.848143 57.333931 340.01425
24.985126 58.426113 333.92746
18.586218 57.074127 334.9325
18.516844 57.045036 335.55515
18.445595 57.015751 336.1777
18.604277 57.279709 336.87189
16.885254 56.753845 340.01047
25.40707 57.864964 333.88354
23.818346 57.718552 334.67532
18.554998 56.463879 335.55151
18.115173 56.406921 336.21124
19.90575 56.72142 338.59595
18.339235 56.579578 339.35815
15.95602 55.826897 339.99966
15.622636 55.915585 340.68762
15.204769 55.973953 341.99118
25.446625 57.273563 333.87997
23.619959 56.833107 334.59982
19.937584 56.257267 335.50513
18.152321 55.826038 336.20767
17.825871 55.915295 336.90207
19.865742 56.106945 339.21692
15.260744 55.19519 340.06284
14.813724 55.138538 340.7124
14.366654 55.082005 341.36038
24.483442 56.329113 333.88501
23.280895 56.216347 334.63571
18.929522 55.298252 336.12918
18.117075 55.215427 336.82587
19.530384 55.495251 339.24789
15.18217 54.472347 340.02191
14.735117 54.416191 340.67142
14.288032 54.360062 341.31921
14.368477 54.179138 342.48007
23.698874 55.655209 334.59259
22.175533 55.410225 335.33386
21.81258 55.193405 335.93356
18.894386 54.686131 336.74857
18.449598 54.630157 337.40778
15.103565 53.749702 339.98096
14.657517 53.694176 340.63043
14.210446 53.638554 341.27811
13.762305 53.582989 341.92459
23.511015 55.437111 343.38779
23.739323 55.06604 334.58908
20.1908 54.240414 335.38388
21.101786 54.554535 336.00607
18.932575 54.103691 336.74506
18.486643 54.048077 337.40421
18.410391 54.017883 338.02628
18.333176 53.987667 338.64807
18.254927 53.95731 339.26981
14.775811 53.147652 340.01108
14.693388 53.11684 340.62665
13.88255 53.037434 341.30679
13.797167 53.006519 341.92093
23.844864 54.506359 333.95493
22.902241 54.27776 334.62839
22.95159 54.394749 335.29419
19.340412 53.546059 336.70453
18.895489 53.490871 337.36429
18.44858 53.435638 338.02277
18.137226 53.114483 338.56998
18.292109 53.374706 339.26624
14.728405 52.539452 340.6232
13.917441 52.461037 341.30328
13.832089 52.430027 341.91733
13.382861 52.375381 342.56223
24.210552 53.825768 333.24362
23.473698 53.704655 333.92993
22.069988 53.493011 334.66769
21.999828 53.46299 335.29547
18.848089 52.678783 336.04208
15.608103 52.170029 336.88647
17.024179 52.544235 339.94827
14.764277 51.961926 340.61957
13.953356 51.884499 341.29977
13.866982 51.853333 341.91391
13.417783 51.799194 342.55869
22.931725 52.985394 333.95602
21.73469 52.881741 334.70349
21.40629 52.972839 335.40555
18.148849 52.049644 336.11411
15.645059 51.592522 336.88309
14.591099 51.636379 337.64429
16.126869 51.741035 340.59253
14.352142 51.330486 341.26385
13.788278 51.133114 341.87207
13.339016 51.07946 342.51678
23.34771 52.421478 333.91235
21.536999 52.004517 334.6272
21.209665 52.095768 335.3295
16.047733 51.037178 336.84283
14.515386 50.91724 337.60468
14.436029 50.88636 338.21982
16.048328 51.017193 340.55118
13.795918 50.444736 341.21667
23.388144 51.832699 333.909
21.576344 51.418419 334.6239
21.130489 51.364777 335.28943
15.719946 50.436977 336.8765
14.472952 50.309948 338.21652
15.968718 50.293602 340.50958
15.51862 50.240498 341.15952
23.806236 51.266888 333.86508
21.615608 50.832203 334.62051
20.797047 50.756676 335.32486
19.605698 50.659031 336.06433
15.642282 49.716549 336.83615
14.838318 49.643364 337.52521
14.396183 49.591278 338.17612
15.07485 49.713268 339.37454
15.554589 49.661259 341.15601
14.372559 49.566566 341.86829
22.405462 50.289612 334.53772
20.089844 50.127739 335.39905
19.643847 50.075165 336.06104
15.201792 48.976105 336.83276
15.123476 48.944748 337.4487
14.319354 48.872803 338.13577
14.238031 48.841351 338.75021
15.224736 49.061348 341.18536
14.45484 48.691685 342.3703
14.505446 48.913849 343.67734
20.455496 49.451591 334.69562
19.89386 49.255936 335.32205
18.709229 49.162403 336.05969
15.238701 48.398895 336.82941
14.798518 48.347687 337.48163
14.274968 48.264957 338.74698
14.192668 48.233368 339.36115
14.894805 48.462437 341.21466
14.037433 48.061897 343.01202
14.175497 48.315289 343.7041
20.37709 48.723328 334.65558
19.933151 48.671818 335.31873
18.377602 48.559696 336.09448
14.835396 47.770775 337.47842
14.591447 47.6758 339.32355
14.816103 47.741608 341.17288
13.887092 47.529186 341.81317
13.708378 47.465168 343.03949
13.730784 47.575249 343.69156
20.416382 48.138714 334.6524
19.482883 47.924931 335.31693
18.460939 47.888954 336.05386
17.969664 47.926548 336.74969
14.872365 47.193691 337.47522
14.429157 47.143364 338.1261
14.628417 47.098408 339.32025
14.737384 47.021191 341.13077
13.922077 46.952007 341.80978
13.4707 46.901466 342.45441
12.9259 46.818851 343.70929
19.774317 47.217621 335.23755
18.589489 47.129395 335.97577
18.144398 47.078941 336.63443
15.157527 46.493572 337.39807
14.351318 46.425743 338.08524
14.664333 46.520962 339.31699
14.409323 46.424835 341.16037
13.563624 46.174473 341.77582
13.028755 46.165516 342.44342
12.938477 46.13324 343.05508
12.642919 46.136238 343.69958
18.777048 46.610344 334.7298
18.70289 46.578663 335.3512
18.627678 46.546837 335.9726
18.182587 46.496876 336.63126
14.63645 45.725742 338.00824
14.337278 45.925827 339.34839
15.200362 45.828945 341.06906
13.040354 45.480785 341.78946
12.950898 45.448452 342.401
12.859596 45.415932 343.01245
12.768201 45.383511 343.62354
19.186138 46.045712 334.68716
18.742056 45.996147 335.34824
18.297894 45.946625 336.00754
17.851763 45.897121 336.66568
17.773497 45.865196 337.28552
13.075184 44.904785 341.78622
12.985849 44.872356 342.3978
12.894487 44.839733 343.00912
12.802132 44.807186 343.62027
19.225338 45.462608 334.68408
18.043333 45.379292 335.42258
17.484375 45.189365 336.04312
17.889872 45.315365 336.66257
15.552171 44.744507 337.96811
14.991053 44.55534 338.58118
14.296409 44.63092 339.30396
14.766621 44.566429 341.07874
13.94912 44.501278 341.75781
13.020712 44.296062 342.39456
12.929379 44.263462 343.00589
12.836964 44.230793 343.61697
12.743631 44.198101 344.22787
18.777847 44.72171 334.68307
17.482996 44.499592 335.3833
17.039837 44.451138 336.04047
16.794653 44.502056 336.70889
15.110305 44.009743 337.96301
15.027963 43.977341 338.57803
14.581682 43.929226 339.2276
14.133294 43.881115 339.87595
13.870289 43.783237 341.7153
13.05565 43.719673 342.39133
12.964287 43.686966 343.00272
12.871902 43.654297 343.61374
12.778524 43.621525 344.22455
9.1147299 43.035225 344.97546
18.331312 43.982464 334.68228
17.52112 43.91872 335.3804
17.077883 43.870785 336.03754
16.633562 43.822914 336.69321
15.065027 43.399246 338.57489
14.617677 43.35146 339.22449
14.169211 43.303886 339.87286
14.358717 43.253521 341.06613
13.906192 43.205799 341.71219
13.090497 43.143185 342.38824
12.885358 42.970558 342.95953
12.906795 43.077614 343.61047
12.088988 43.015324 344.28079
9.0375385 42.325283 344.93228
8.2295294 42.264523 345.59286
18.370476 43.400528 334.67932
17.360029 43.239468 335.36511
16.999195 43.150227 335.99661
16.554918 43.102856 336.65216
15.745401 43.040714 337.34311
15.10206 42.82095 338.57184
14.654586 42.773754 339.22156
14.206181 42.726582 339.86978
14.757894 42.689827 341.02997
13.942154 42.628162 341.70895
9.0701885 41.754105 344.92905
7.9098682 41.681145 345.61765
18.041599 42.803814 334.71606
16.921469 42.430019 335.9556
16.111984 42.368927 336.64871
15.303577 42.308041 337.3389
15.222274 42.275379 337.95398
15.054724 42.209747 339.18362
14.242068 42.149025 339.86685
14.430677 42.097225 341.05991
13.614904 42.036667 341.73816
12.975636 41.924 343.60419
9.5566492 41.228966 344.29184
9.103878 41.182865 344.92581
18.00456 42.18956 335.33264
16.594507 41.836117 335.99084
15.421884 41.762493 336.72058
14.863594 41.577343 337.3342
14.532948 41.669941 338.02307
14.278077 41.571476 339.86386
14.466674 41.518887 341.05692
13.898232 41.333256 341.66293
12.687431 41.035118 344.13077
9.1376123 40.611534 344.92261
7.048511 40.242733 345.58725
17.808058 41.328579 335.25369
16.268364 41.243145 336.02618
14.785688 40.861145 337.29272
14.341233 40.815392 337.94315
14.485638 41.059559 338.63388
14.085341 40.716118 339.78244
13.998025 40.682953 340.39511
13.094882 40.591526 341.68518
14.500664 40.820347 343.47528
14.40636 40.787071 344.08835
9.059289 39.902557 344.87894
8.3325796 39.804115 345.51663
6.9815421 39.641006 346.18445
15.942266 40.651161 336.06155
14.461474 40.271385 337.32681
14.378219 40.23827 337.94019
14.293817 40.20512 338.55344
13.944674 40.072147 341.00461
13.130722 40.014973 341.6821
8.6266975 39.182915 344.86438
7.8204584 39.127647 345.52417
6.3103156 39.0508 346.23642
15.946817 39.891674 335.99493
14.942917 39.739048 336.67288
14.498429 39.694283 337.32401
14.415097 39.66106 337.93741
14.330863 39.627823 338.55054
13.166698 39.438324 341.67908
14.476465 39.627892 344.08206
10.308825 38.929012 344.8259
7.3092165 38.453213 345.53177
6.2338247 38.34713 346.1926
15.4234 39.205711 336.01767
14.979904 39.161354 336.67007
14.535354 39.116974 337.32114
14.452097 39.083656 337.93448
14.006523 39.039383 338.58328
13.56402 38.872349 341.64355
9.404871 38.061226 344.79944
6.6093569 37.686859 345.52164
6.156311 37.643703 346.1488
16.943306 39.001919 334.74246
14.820519 38.488483 336.65402
14.458406 38.402222 337.27939
14.374127 38.368763 337.89252
14.042424 38.462341 338.58047
13.594863 38.418507 339.22781
13.599891 38.294891 341.64056
12.669965 38.103271 342.27554
14.449248 38.434624 344.68863
6.641861 37.118992 345.51843
6.1898518 37.07637 346.1456
16.749537 38.146263 334.66333
15.217367 38.072369 335.43607
13.824553 37.735584 336.08783
13.742165 37.702045 336.69977
12.590891 37.389656 342.23221
13.88909 37.567879 344.63254
6.6744576 36.550903 345.51541
6.2223711 36.508781 346.14255
16.423389 37.55666 334.70053
13.942656 37.193272 335.47296
13.862328 37.159702 336.08511
13.061447 37.107815 336.77191
13.667733 37.264935 339.22238
12.987255 36.822227 342.1969
13.195121 36.970707 344.68918
7.0594997 35.990807 345.4838
16.462471 36.977036 334.69791
14.702142 36.634632 335.39273
13.540939 36.575054 336.12054
13.098335 36.532719 336.76932
14.285849 36.465614 338.45764
13.475746 36.414726 339.14075
12.661683 36.237007 342.22626
12.205933 36.194866 342.86734
7.0930748 35.42207 345.48071
14.741112 36.057514 335.39017
13.577784 35.999336 336.11798
13.136108 35.957546 336.76675
13.051798 35.923748 337.37735
12.966511 35.889996 337.98779
13.512653 35.838097 339.13791
12.336123 35.652809 342.25565
11.881285 35.611225 342.89581
12.311216 35.524502 344.65961
6.4224863 34.839478 345.53482
7.1234159 34.845921 347.28604
15.140421 35.487823 335.34863
13.501758 35.288223 336.07672
13.058998 35.24688 336.72531
12.974703 35.212883 337.33572
12.172543 35.164429 338.01825
12.257075 34.940701 342.21188
11.442636 34.892551 342.88354
18.437674 35.749767 344.41312
7.1592493 34.284248 345.47473
7.2002196 34.188389 347.24622
13.783998 34.584145 335.99707
12.982924 34.536568 336.6839
12.540191 34.495739 337.3309
12.09645 34.455116 337.9765
11.6526 34.414516 338.6207
12.146719 34.657276 339.27283
11.36546 34.182037 342.83963
18.355104 35.024342 344.36761
7.5434155 33.720917 345.44327
7.2328358 33.61861 347.2431
14.772722 34.291016 335.99594
13.379257 33.967621 336.64365
12.578009 33.921158 337.32834
12.019135 33.746368 337.93433
11.218873 33.700356 338.61411
11.400349 33.607243 342.83679
17.645306 34.424541 344.42606
14.580685 33.443172 335.91498
13.776524 33.39743 336.60321
12.973291 33.351879 337.28882
11.586383 33.032616 337.92862
11.14256 32.99316 338.57193
11.165216 33.092953 339.21851
11.096555 33.158836 340.47214
11.435115 33.032349 342.83395
17.680664 33.839153 344.42316
7.8598146 32.551826 346.00943
7.7562685 32.517712 346.60989
14.535438 32.831223 336.52484
13.010149 32.776463 337.28629
11.623221 32.459213 337.92603
11.178284 32.420094 338.56937
11.088966 32.385654 339.17606
10.99861 32.351261 339.78259
11.03895 32.550861 341.07617
11.111434 32.452641 342.86285
17.227327 33.110714 344.40823
16.874481 33.208164 345.09698
7.7823324 31.847528 345.96442
7.6778712 31.813162 346.56467
6.5956883 31.723665 347.22284
13.291538 32.071232 337.20691
11.660014 31.885584 337.92355
11.215152 31.846947 338.56686
11.125727 31.812527 339.1734
10.678802 31.773853 339.81448
10.448867 31.792862 341.06372
5.9959335 31.272341 341.90036
10.951552 31.787222 342.84314
10.577103 31.705177 343.45581
7.7038879 31.143469 345.91946
7.2466025 31.105639 346.54727
6.0858469 31.061256 347.22781
11.696823 31.311872 337.92096
10.540728 31.266499 338.63562
10.450309 31.232033 339.24112
10.358946 31.197535 339.84647
10.172097 31.128502 341.05634
6.1166191 30.532265 341.82281
5.4319363 30.623924 342.52408
10.14214 30.993797 343.44257
7.3847799 30.57033 345.94498
6.2239919 30.527309 346.62756
10.909261 30.599081 337.95142
10.464408 30.561489 338.5932
10.373992 30.526833 339.19843
10.189203 30.457567 340.40833
9.852191 30.552994 341.08701
6.1501427 29.965818 341.82022
5.3571677 29.926714 342.48117
5.2586536 29.892284 343.07761
10.17591 30.420465 343.43985
5.7919998 29.726469 345.97119
5.446826 29.822208 346.63763
10.832943 29.893883 337.90909
10.387967 29.856779 338.55075
9.9439058 29.819756 339.19089
9.6636477 29.715492 341.00275
6.0753756 29.26811 341.77676
5.282383 29.230104 342.43784
5.2920685 29.326738 343.07495
10.210673 29.846966 343.4371
5.9300199 29.193613 345.37152
5.4757633 29.15756 345.99667
5.369101 29.122997 346.59265
10.779347 29.286394 338.51242
9.9796562 29.248096 339.18845
9.5335321 29.211718 339.82712
9.3447132 29.142153 341.03381
5.9996772 28.570662 341.73331
5.2076421 28.533905 342.39429
5.9625235 28.626228 345.36877
5.5082054 28.590572 345.99387
5.4016037 28.556017 346.58975
10.816108 28.71368 338.50992
10.015329 28.676437 339.18597
9.5692358 28.640455 339.82477
9.3803558 28.570789 341.03122
5.3396616 28.003366 341.79562
5.6452646 28.058056 345.39493
5.540678 28.023481 345.99106
5.4341068 27.988922 346.58691
5.3265128 27.954334 347.18246
10.497146 28.140181 338.54358
10.052058 28.104607 339.18365
9.60497 28.068987 339.82242
9.5104761 28.034096 340.42569
9.061326 27.99873 341.06204
5.0282578 27.437981 341.82535
5.5304179 27.464233 343.59137
5.6731305 27.394669 344.75385
5.5685134 27.359991 345.34998
5.3590775 27.387054 347.17953
10.165411 27.375027 339.11108
9.5284157 27.366295 339.77917
9.4340153 27.331224 340.38214
8.632019 27.296453 341.05188
4.716867 26.873592 341.85495
5.5963631 26.697002 344.70908
5.4917917 26.662233 345.30496
9.8056965 26.663181 339.70105
9.3575211 26.628727 340.33871
8.2047062 26.595959 341.04172
4.9083586 26.222105 341.80383
4.1965561 26.145983 342.43805
5.6298571 26.130259 344.70639
5.1773639 26.096685 345.33127
5.4230776 26.252331 347.17395
10.100868 26.05489 340.26761
8.9439783 26.023499 340.97244
4.5671287 25.486069 341.76831
4.1226926 25.452919 342.3945
5.6633515 25.563311 344.70367
5.2098498 25.530193 345.32861
5.3446469 25.458609 346.49026
8.978611 25.452497 340.96997
4.500927 24.886791 342.36023
5.6958847 24.996214 344.70105
5.2423358 24.963606 345.3259
5.9675159 24.851574 347.02716
7.8592424 24.853516 341.668
4.5352693 24.322285 342.35764
5.7294259 24.429062 344.69839
5.2758608 24.39695 345.32324
8.9516039 24.274944 341.56686
4.9136767 23.75436 342.32339
4.4661384 23.722685 342.9494
5.3083477 23.83016 345.32056
6.0326667 23.714798 347.02145
5.5720325 23.683325 347.64417
5.2940249 23.185225 342.28897
4.8465166 23.154034 342.91556
4.9853001 23.079603 344.07343
4.9928293 23.26726 345.3472
6.0652342 23.146214 347.01868
5.604598 23.115345 347.64127
4.8799763 22.58868 342.91309
5.0187306 22.513741 344.07095
4.9131517 22.478558 344.66519
5.0253463 22.700773 345.34464
6.0967946 22.577583 347.01587
5.6361279 22.547106 347.63849
8.3796349 22.27132 342.10916
5.6074185 22.013151 342.8476
5.1568561 21.982929 343.47397
4.5996437 21.917643 344.69244
4.1459785 21.887665 345.31509
5.5583196 21.849941 347.59186
8.4143295 21.700603 342.10687
8.3128452 21.665087 342.70685
5.5373645 21.411177 343.44046
4.9753394 21.253735 344.02319
4.2859797 21.357706 344.71985
4.1784005 21.322464 345.31259
6.1260233 20.909216 342.21497
8.235137 20.965693 342.66156
3.8656642 20.763491 345.33914
5.8114791 20.348597 342.24509
5.0137734 20.326258 342.90375
4.2442513 20.192015 345.30756
5.7355566 19.654671 342.20044
4.9387941 19.633562 342.85916
4.4705148 19.487432 344.63528
4.1672258 19.499458 345.26205
5.3125215 18.968912 342.18839
4.8637981 18.941183 342.81448
4.7846432 18.791258 345.15732
6.1537328 18.513058 342.16364
4.8972893 18.375532 342.81226
4.4455419 18.348402 343.43692
4.7084522 18.189579 345.74771
4.705112 18.372898 347.02063
6.1304903 17.882137 342.13998
4.9307351 17.809872 342.80997
4.1337771 17.79212 343.46573
4.4721093 17.678469 346.38589
6.006783 17.215723 342.71179
4.5124006 17.217886 343.43237
4.4057674 17.182394 344.02487
4.3155499 17.031088 346.36356
5.6920776 16.658298 342.7417
4.8920336 16.6425 343.39883
3.9845169 16.501574 344.01004
4.3480349 16.464985 346.36096
4.3795137 15.898855 346.35852
7.8388186 15.846941 342.70538
5.6535516 15.488302 343.33157
4.8514562 15.474743 343.9873
4.4119072 15.332662 346.35602
7.5401225 14.898851 342.57364
7.348393 15.03821 343.24994
4.234304 14.844677 344.00735
4.9034319 14.790117 345.73279
4.1055622 14.623309 346.3176
7.5747089 14.328843 342.57144
6.7675624 14.317159 343.23224
6.3107266 14.293476 343.85898
4.2578473 13.950003 346.26245
6.8011999 13.748106 343.22998
6.3443322 13.724919 343.85669
5.886364 13.701921 344.48199
3.2520561 13.423096 346.34595
6.9950047 13.087046 343.17728
6.3779078 13.156266 343.85446
5.9189467 13.13372 344.4798
5.122395 12.931185 345.05209
3.9763424 12.831494 346.2861
6.1903739 12.338742 343.76422
4.5794806 12.323005 345.07272
6.5733376 11.75589 343.73056
6.0027642 11.610332 344.31128
4.6119666 11.756708 345.0704
4.2720909 11.649783 346.8432
4.9919224 11.175299 345.03802
4.6520481 11.068241 346.81235
5.7214727 10.576971 344.97537
4.9118257 10.572568 345.62753
4.33601 10.517048 346.83823
5.7540088 10.008876 344.97314
4.944314 10.005569 345.62518
4.8307381 9.9698086 346.21643
4.3675351 9.95051 346.83582
4.975872 9.4383316 345.62289
4.8622189 9.402669 346.21414
5.4706016 8.8897152 344.9989
5.0083604 8.8711653 345.62061
4.546102 8.8527374 346.24072
5.4671173 8.1281071 345.5166
4.4699812 8.1635199 346.19333
3.8980429 8.0233717 346.76666
5.5513372 7.4548187 345.46619
4.0461817 7.4931116 346.17496
4.8866558 6.9249024 345.5238
4.0786362 6.9271774 346.17258
4.9190979 6.35781 345.52158
4.1101604 6.3611264 346.17029
4.1415935 5.7949991 346.16803
4.9841666 5.223412 345.51706
4.7971559 4.4144006 345.42377
3.3979115 4.2543445 346.0343
2.8340456 4.4493222 346.74689
1.084933 3.2285528 346.21024
4.986218 3.0757699 334.7868
3.9852793 2.950954 335.41858
4.0483494 3.0905323 336.07129
4.2269368 3.1600294 336.6842
3.7248437 2.9988647 337.25293
3.4049454 3.0009661 337.87631
3.323796 2.9210048 338.44412
2.1347032 2.9090147 340.31506
4.5469666 2.7840276 343.07526
3.5222614 2.6377001 344.27097
4.3147597 2.7949877 344.8884
3.3908055 2.768981 346.12427
-8.9454489 -7.9573927 343.88907
3.0121751 2.5334849 349.6156
2.3024046 2.6650553 350.29861
-0.80118954 2.3640141 352.07193
-0.82529813 2.4490864 352.69794
-1.4010205 2.3187933 353.2511
-1.9778287 2.1885977 353.80225
-2.1400433 2.2403674 355.00192
-2.274056 2.2064686 355.57764
-2.6520329 2.0199265 356.67847
-2.9157481 2.1729445 357.33502
-6.2960186 -7.5935144 330.24503
-6.5511765 -7.5551157 330.88477
-7.1712198 -7.60779 331.49701
3.6683371 2.1092167 343.68112
3.5536447 2.0730176 344.26895
3.438967 2.0369797 344.85635
3.3232968 2.00104 345.44351
3.3143814 2.0845742 346.0762
2.8508055 2.0723214 346.69177
2.81952 2.0268121 349.05359
1.7902756 1.7998673 349.5968
6.1174402 1.4974761 335.09387
5.2868094 1.336912 336.89267
4.8166189 1.2382901 338.08463
4.3756166 1.3047788 339.3454
3.8190658 1.4167862 341.82489
3.8172352 1.4986789 342.45792
3.8134511 1.580747 343.09116
2.0671668 1.3066213 348.42639
1.5361247 1.4430428 351.47318
0.62520194 1.1459689 351.97241
243.3716 361.61334 -107.13586
29.629944 108.78654 336.94525
29.378183 108.08788 337.21713
29.476721 107.98473 338.04324
29.310848 107.58231 336.36572
29.126419 107.39124 337.4892
29.059608 106.88467 336.63824
28.8752 106.69561 337.7605
30.304155 106.73985 339.05554
28.92453 106.12769 336.75186
28.798534 105.90853 337.79434
28.895798 105.80737 338.61938
28.904707 105.30931 336.70694
28.721056 105.12233 337.82877
28.818913 105.02224 338.65314
29.199224 105.00701 339.18222
28.654247 104.61571 336.97906
28.754709 104.51575 337.80325
28.851927 104.41559 338.62842
28.687963 104.00811 336.95367
28.787817 103.90811 337.77853
28.884954 103.80895 338.6037
28.721088 103.39948 336.92877
28.820799 103.30144 337.75378
28.178261 102.34966 338.37766
28.970566 102.36526 335.754
28.787928 102.18423 336.87866
28.721321 101.67371 336.02618
28.538832 101.49374 337.1496
27.694288 100.73945 336.12677
27.795519 100.64317 336.952
27.896324 100.54708 337.77533
27.335281 99.874886 336.45798
27.718388 99.859848 336.9856
27.537603 99.684227 338.10419
27.369057 99.268593 336.43265
27.190834 99.094551 337.55109
27.950132 99.063057 338.60788
26.633772 98.691986 335.35336
27.240284 99.029388 335.76175
26.842493 98.504578 336.99911
27.223873 98.489204 337.52652
26.667564 98.085663 335.32816
26.773211 97.992706 336.15094
26.876295 97.89933 336.97394
27.257708 97.883751 337.50128
26.423254 97.401917 335.59872
26.527666 97.30938 336.42175
26.910023 97.293945 336.9487
26.900587 97.026199 337.82932
30.121634 97.334152 340.06985
30.381754 97.140167 340.66129
26.457106 96.796112 335.57352
26.561483 96.703987 336.39655
26.943886 96.688538 336.92346
29.383101 96.491226 339.8649
29.360476 96.221085 340.74792
29.449635 96.126869 341.57135
26.212032 96.113892 335.84491
26.977095 96.082878 336.89899
29.019667 95.63282 340.19229
29.111017 95.53952 341.01511
29.198969 95.445686 341.83881
25.750702 95.34951 335.35306
25.912821 95.226166 336.09546
26.899555 95.302673 336.9325
26.610744 94.962212 338.10693
28.960747 95.119797 339.3428
29.052692 95.02697 340.16769
29.143343 94.934021 340.99121
29.231291 94.840858 341.81497
25.674273 94.570343 335.3862
25.780796 94.480598 336.20731
26.643856 94.357979 338.08249
28.429991 94.364212 339.9046
28.52166 94.272057 340.72778
28.893072 94.254036 341.25922
29.263567 94.235863 341.79114
25.814598 93.875992 336.18222
25.918524 93.786423 337.00354
26.677643 93.753639 338.05731
28.368786 93.850121 339.05704
28.068312 93.510994 340.23132
28.441324 93.493103 340.76151
28.812645 93.474976 341.29279
29.183006 93.45649 341.82452
25.848429 93.271393 336.15707
25.95237 93.182213 336.97849
27.895121 92.823181 339.44199
27.988829 92.732697 340.26459
28.361019 92.714561 340.79523
28.732872 92.696312 341.32562
25.88302 92.666687 336.13123
25.98617 92.578041 336.95334
26.365873 92.56144 337.48032
24.972427 91.702888 339.71832
28.394026 92.109993 340.77072
29.134672 92.072861 341.83405
