ply
format ascii 1.0
comment PCL generated
element vertex 1552
property float x
property float y
property float z
element camera 0
property float view_px
property float view_py
property float view_pz
property float x_axisx
property float x_axisy
property float x_axisz
property float y_axisx
property float y_axisy
property float y_axisz
property float z_axisx
property float z_axisy
property float z_axisz
property float focal
property float scalex
property float scaley
property float centerx
property float centery
property int viewportx
property int viewporty
property float k1
property float k2
end_header
-0.7147522 92.178238 361.28116
-0.37863159 92.156807 361.76654
-0.043518066 92.135223 362.25238
-0.16313171 91.989372 363.22269
-3.0346527 92.392616 355.34592
-2.9097443 92.311447 356.07541
-3.0101776 92.168037 357.05194
-0.46525574 91.693748 361.0159
-0.3558197 91.610565 361.74564
-0.021392822 91.588722 362.23212
0.086242676 91.505363 362.96008
-2.8854065 91.764076 356.05313
-2.7629242 91.683029 356.78308
-2.732254 91.447044 357.55914
-0.44239807 91.146873 360.99496
-0.33299255 91.064087 361.72473
-2.6379395 91.277817 355.78299
-0.53071594 90.682182 360.2439
-0.41955566 90.600021 360.97403
-0.31008911 90.517639 361.70386
0.5856781 90.534348 362.43402
-2.3898621 90.790726 355.51205
-2.4906616 90.649597 356.49106
-0.50784302 90.134697 360.22299
-0.39666748 90.053047 360.95313
0.50146484 90.069435 361.68283
0.62153625 89.903511 362.36377
-2.3654327 90.242073 355.48975
-2.4530334 90.018822 356.41833
-2.436676 89.867355 357.24661
-2.3175049 89.787086 357.97626
-0.48417664 89.587303 360.20132
-0.14704895 89.565651 360.68774
-2.1159058 89.753464 355.21716
-2.4016266 89.30468 356.29428
-2.5039063 89.165947 357.27203
-2.1611176 89.145416 357.75562
-1.8192444 89.124695 358.23965
-0.34709167 89.179901 359.20313
-0.46122742 89.039726 360.18048
-0.12409973 89.018105 360.66684
-1.8670349 89.263603 354.9454
-1.7448273 89.184021 355.67938
-2.4794922 88.618896 357.24976
-2.1367798 88.598358 357.73337
-1.7949066 88.577454 358.21735
-0.32336426 88.631424 359.18146
-0.34886169 88.428421 360.02686
-0.51203918 88.103004 360.98215
-0.85316467 87.90638 362.19693
-2.0370026 88.421555 355.95355
-2.4558411 88.071777 357.22827
-2.1130524 88.051056 357.71182
-1.7711945 88.030159 358.19583
-0.073287964 88.141327 358.91357
-0.53730774 87.739189 360.19916
-0.93942261 87.44075 361.44785
-1.0553131 87.30349 362.41818
-2.3283691 87.660698 356.22736
-2.4313965 87.524529 357.20605
-2.0886536 87.503799 357.68954
-1.7474518 87.482742 358.17429
-0.049545288 87.592125 358.89197
-1.2515411 86.916977 360.94135
-1.1410675 86.837776 361.66959
-1.1246948 86.605156 362.44305
1.7325897 89.316933 351.28809
-2.3046265 87.112396 356.20578
-1.7237091 86.935234 358.15274
-1.3828125 86.913979 358.63727
-1.003067 86.427719 360.67609
-1.9193726 86.742622 355.81973
-1.9355927 86.543343 356.66733
-1.5919647 86.522392 357.15164
-1.6992188 86.38768 358.13055
-1.2049103 85.824989 360.89905
1.5947571 87.888199 351.34076
-2.0315857 86.072151 355.9126
-1.911026 85.994896 356.64511
-1.5681763 85.973778 357.13016
-1.2262268 85.95253 357.61566
-1.2927704 85.356682 360.14822
-0.95709229 85.334396 360.63452
-1.1646271 85.048119 361.65292
1.6203461 87.330437 351.31747
-2.0070801 85.523209 355.89035
-1.8865204 85.446335 356.62289
-1.5436401 85.425125 357.10791
-1.2017059 85.403778 357.59341
-1.2697296 84.810005 360.12747
-1.5619965 85.31517 354.58612
-1.7577972 85.029549 355.61859
-1.8626709 84.897644 356.60141
-1.5197449 84.87632 357.08643
-0.79663086 84.37281 359.61667
-0.91038513 84.240913 360.59222
1.671051 86.214592 351.27185
-1.5085602 84.534981 355.3468
-1.613678 84.403732 356.33078
-0.77282715 83.824997 359.59515
-0.79898071 83.628464 360.43896
1.6012878 85.500954 351.29807
-1.2586823 84.039413 355.07416
-1.3646698 83.908813 356.06012
-1.2457428 83.832977 356.79398
-0.52337646 83.330956 359.32782
1.3005676 84.73159 351.58167
-1.0087433 83.542702 354.80148
-1.3399811 83.358879 356.03796
-1.2217865 83.283363 356.77252
-0.8397522 82.599968 360.52863
1.6783447 84.153564 352.04828
-0.86453247 82.915977 355.51645
-0.74615479 82.840813 356.25262
-1.3566742 81.999138 359.33603
-1.2448883 81.92379 360.06717
-0.91009521 81.900948 360.55402
-1.0141907 82.894974 353.18341
1.7033386 83.596016 352.02585
-0.26856995 82.396507 355.73029
-1.4263306 81.299889 359.36072
-1.3145142 81.225235 360.09189
-0.97984314 81.202286 360.57855
-0.64616394 81.179115 361.06564
-1.1127777 82.416168 352.42142
-1.0834198 82.189163 353.20944
2.8490601 83.567696 350.87357
2.7754517 83.180969 351.72287
-0.017745972 81.8974 355.45825
-1.3292694 81.129791 358.51529
-1.626358 80.701309 359.58426
-1.2907257 80.678413 360.0705
-1.4381866 81.88356 351.91257
-1.4073181 81.657593 352.70068
-1.5096741 81.53112 353.69186
2.778183 82.852509 350.90009
0.0070037842 81.344963 355.43607
-0.10299683 81.218475 356.42398
-1.3987885 80.430321 358.54007
-1.1549072 80.256187 359.07269
-0.93293762 80.10833 360.53641
-1.1869202 81.382599 351.63531
-1.3817749 81.10482 352.67773
-1.4841003 80.979324 353.66901
2.9390259 82.19101 350.66837
0.55125427 80.998642 354.87802
-0.239151 80.565018 356.55063
-1.1499939 79.933136 358.27179
-1.131012 79.708252 359.05118
-0.79460144 79.685173 359.53815
-0.68450928 79.611588 360.27063
-1.1612701 80.828621 351.61237
-1.3121796 80.518417 352.58618
-1.5517883 80.275734 353.69382
2.964859 81.630508 350.64511
0.51208496 80.342728 354.88803
-0.69604492 79.709488 356.97354
-0.80691528 79.585808 357.9567
-1.1071625 79.160156 359.02975
-0.77075195 79.137039 359.51672
-0.66062927 79.063896 360.24921
-0.90914917 80.325928 351.33435
-1.1994629 79.89785 352.4267
-1.5269623 79.723862 353.67166
0.53692627 79.789017 354.86572
-0.67129517 79.159134 356.95142
-0.87733459 78.885208 357.98184
-0.74684143 78.588844 359.49527
-0.4120636 78.565453 359.98337
-1.5245361 79.365715 351.91806
-1.1737823 79.344452 352.40375
-1.2762604 79.222214 353.39648
0.78996277 79.28569 354.59128
-0.13098145 78.809425 356.39923
-0.60971069 78.161865 358.4942
-0.27255249 78.138664 358.9819
-0.16220093 78.066116 359.716
-1.272644 78.862442 351.63983
-1.1481476 78.790932 352.38083
-1.2512665 78.669548 353.37445
0.81488037 78.731125 354.56903
-0.39672852 78.107292 356.65887
-0.28231812 78.035286 357.3956
0.08694458 77.56575 359.44934
-2.2725372 78.18158 351.89429
-2.1467743 78.11097 352.63239
0.61178589 78.127052 354.79904
-0.14550781 77.604782 356.38702
-0.47245789 77.35157 357.57098
-0.56109619 77.063187 358.45059
0.33747864 77.064362 359.18106
0.44551086 76.992386 359.91718
-2.1596222 77.561195 351.73355
-2.5326996 77.20945 352.95755
-2.4210815 77.223396 353.74673
0.65583801 77.349808 355.56628
0.21960449 77.030067 356.85422
0.1401825 76.656837 357.68631
0.25178528 76.585533 358.42316
0.58811951 76.561913 358.91278
0.46879578 76.442627 359.89639
-1.771347 77.173233 351.33936
-2.5071106 76.658218 352.93481
-2.1596375 76.636261 353.41995
3.1197052 78.265358 350.50671
0.47122192 76.525978 356.58258
-0.06149292 76.058464 357.91251
0.27581787 76.034935 358.40167
0.38485718 75.963913 359.13885
-1.9701538 76.57164 351.57089
-2.4814758 76.106842 352.91205
-2.134079 76.084862 353.39719
-1.7882233 76.062599 353.88354
0.72357178 76.020844 356.31015
0.18902588 75.554558 357.64261
0.29988098 75.484108 358.38019
0.63552856 75.460243 358.87054
-2.0709686 76.087341 350.80777
-2.0389709 75.868187 351.59604
-2.2323303 75.602211 352.63663
-2.1091309 75.533203 353.37512
-1.7625885 75.511002 353.86078
0.86209106 75.584824 355.2959
0.97589111 75.514587 356.03772
0.21310425 75.003258 357.62112
0.32397461 74.933205 358.3588
0.65956116 74.909248 358.84909
-2.1078339 75.164955 351.62115
-2.2066498 75.050133 352.61383
-2.0834351 74.981613 353.35239
1.000061 75.147095 354.27808
0.88713074 75.030594 355.27365
0.2379303 74.451912 357.599
0.3480835 74.382195 358.33737
0.68370056 74.358253 358.82767
1.0183563 74.334129 359.31842
-2.0814362 74.6119 351.5976
-1.9567108 74.543869 352.33765
-1.8331146 74.475761 353.0766
0.26210022 73.900307 357.57758
0.37225342 73.831184 358.31598
0.70782471 73.807144 358.80624
1.0424957 73.782913 359.297
-1.8313141 74.104301 351.32016
-1.9309235 73.991074 352.31488
-1.8073425 73.923363 353.05389
-1.686203 73.855461 353.79327
0.82221985 73.990883 354.48624
0.93714905 73.921921 355.22931
0.51339722 73.39357 357.30688
0.62393188 73.324844 358.04565
0.73196411 73.255821 358.78488
1.0665894 73.231628 359.27557
-1.8054352 73.550407 351.29739
-1.9051361 73.438179 352.29218
-1.7822723 73.370796 353.03189
-1.6604309 73.303444 353.77057
0.84799194 73.435974 354.46338
0.96212769 73.367455 355.20712
0.53762817 72.841362 357.28549
0.87496948 72.817337 357.77606
1.21138 72.793175 358.26709
1.3184357 72.72451 359.00671
-2.1980133 72.692139 352.56976
-2.2988281 72.581429 353.56085
-1.635376 72.751205 353.7486
0.87307739 72.880936 354.44119
0.98722839 72.812805 355.18497
0.56254578 72.289085 357.26337
0.89916992 72.264961 357.75467
1.235611 72.240761 358.24567
1.5702972 72.216301 358.73782
-2.4901276 71.947762 352.84677
-2.8133545 71.795143 354.08774
1.1261139 72.369911 354.16632
1.0123596 72.258163 355.16281
0.24920654 71.760742 356.75113
0.58680725 71.736694 357.242
1.3668823 71.620392 358.96396
-2.687851 71.353058 353.07709
-2.5650482 71.287399 353.81412
-2.4440002 71.221687 354.55072
0.27359009 71.208328 356.72983
0.28808594 70.99276 357.51541
0.39741516 70.925789 358.25458
0.7321167 70.901283 358.74536
-2.4250793 71.022324 351.94687
-2.6614075 70.801804 353.05374
-2.5392609 70.736526 353.79147
0.4132843 70.76474 355.71613
0.52522278 70.698235 356.45786
-0.010513306 70.250526 357.78909
0.32502747 70.225975 358.27927
0.65957642 70.201347 358.76993
-2.3140411 70.398918 351.7868
-2.6355591 70.250305 353.03113
-2.5141602 70.185341 353.76956
-2.1701813 70.162148 354.25555
0.43768311 70.211143 355.69479
0.55029297 70.145096 356.43579
-2.2875366 69.845871 351.7634
-2.6097412 69.698692 353.00854
-2.5832214 69.487022 353.79346
-2.2400513 69.463585 354.27997
-1.8978119 69.440063 354.76697
0.46276855 69.657494 355.67267
0.43466187 69.479317 356.52847
0.36164856 69.336807 357.45071
-2.0379944 69.333847 351.48639
-2.3100586 68.765327 354.30441
0.71548462 69.144836 355.39874
0.17895508 68.701843 356.73523
0.51557922 68.677277 357.22641
0.85189819 68.652618 357.71729
1.1865387 68.627731 358.20938
-2.0114136 68.780098 351.46307
-2.1117249 68.675934 352.45786
0.7406311 68.59037 355.37665
0.85229492 68.525513 356.11966
0.54057312 68.124748 357.20428
0.87619019 68.100029 357.69592
0.9836731 68.035133 358.43634
-1.984726 68.226349 351.43973
-2.1816254 67.976021 352.48221
-2.2405853 67.837486 353.40579
-2.0674591 67.956589 354.16608
0.76583862 68.035927 355.35464
0.66026306 67.846413 356.29633
0.56491089 67.572037 357.18304
0.90052795 67.547203 357.67462
1.2351379 67.522224 358.16672
-2.6968994 67.198463 353.01184
1.2468262 67.56057 354.82779
1.043869 67.097404 356.66119
1.3802338 67.072495 357.15353
1.4879761 67.008438 357.89551
-2.6710052 66.64679 352.98926
1.0438843 66.965706 355.05856
1.383194 66.941162 355.55106
-2.4068756 66.304985 351.85818
-2.6450958 66.094971 352.96674
-2.5239258 66.033203 353.70526
1.5269165 66.487831 354.5293
1.0825195 66.199959 355.827
2.0926056 66.125122 357.30634
-2.6429138 65.703171 351.21054
-2.5184784 65.641968 351.95078
-2.6184692 65.543106 352.94345
-2.7198639 65.444458 353.93356
1.5515747 65.931229 354.50803
1.2369843 65.535744 355.60013
1.5744324 65.510704 356.09344
1.9116211 65.485657 356.58658
2.0187531 65.422821 357.33084
-2.4925079 65.088943 351.92828
-2.5925446 64.991127 352.92105
-2.6841278 64.808716 353.85855
1.9170837 65.34993 354.97922
1.9367981 64.930435 356.56454
2.0431976 64.868004 357.30951
-2.4657593 64.535896 351.905
1.8433838 64.646133 355.00381
1.6248169 64.400307 356.04932
1.9612885 64.375031 356.54315
2.0683899 64.313072 357.28745
-2.216156 64.01886 351.62775
-2.5398102 63.886765 352.87537
1.6501465 63.844887 356.02728
1.9865875 63.81958 356.52106
2.0929108 63.758087 357.26608
-2.190033 63.465073 351.60522
-2.2071228 63.296883 352.46271
-2.2681427 63.165054 353.38754
-1.7994995 63.030884 353.66959
1.6753693 63.289413 356.00531
2.0111542 63.263969 356.49979
2.1174622 63.202965 357.24481
-1.7161713 62.981567 351.07224
-1.7735748 62.478191 353.64703
1.4812317 62.854782 354.49069
1.8203735 62.829582 354.98425
1.6999664 62.733727 355.98398
2.0364075 62.708313 356.47778
2.1427307 62.64772 357.22275
-1.9135742 62.391891 351.30469
-2.0154419 62.298336 352.30148
1.8457031 62.272842 354.96225
1.7253265 62.178074 355.96201
2.3970947 62.127037 356.94983
-2.0097656 61.895649 350.53806
-2.207489 61.658592 351.5835
-1.7652588 61.778812 352.0246
-1.7424774 61.575676 352.81351
-1.7215424 61.372593 353.60202
5.6079865 63.733299 346.87512
1.7607269 61.775791 354.19254
1.8710938 61.716099 354.94025
1.7506714 61.622322 355.94
2.8813019 61.6394 356.42517
-1.9828491 61.340607 350.51492
-2.7229462 60.893757 352.11533
-2.3798218 60.869148 352.60312
5.3972931 63.285797 345.31989
5.3987885 63.128227 347.11725
1.5581207 61.184692 354.42395
1.8964996 61.159256 354.91821
1.7760468 61.066376 355.91809
2.4463959 61.01503 356.90732
-1.7321625 60.818592 350.23553
-2.3530273 60.316193 352.57999
5.6776428 62.542435 345.84583
-0.34373474 60.570877 353.93863
1.9219666 60.602299 354.89627
1.8014679 60.510429 355.89615
2.1363983 60.484627 356.39127
2.4710388 60.458946 356.88605
-1.8451996 60.15564 350.3295
-2.2250671 59.852306 351.56171
-2.3268585 59.763203 352.55756
-0.75611877 59.896828 353.4718
-0.41569519 59.871689 353.96243
0.26159668 59.821133 354.94583
1.9553528 59.841644 355.6684
2.6254425 59.789742 356.65872
-1.9754639 59.329983 351.28406
-2.299408 59.210098 352.53369
-0.71258545 59.1413 354.23868
-0.59959412 59.084278 354.98206
-0.26208496 59.058857 355.47272
2.4452515 59.146008 355.93518
-1.9485168 58.775341 351.26086
-2.0505676 58.687958 352.25803
-0.68711853 58.587246 354.21695
-0.57350159 58.530678 354.95963
-1.697525 58.251305 350.98163
-2.0236664 58.134117 352.23492
-0.55052185 58.1199 353.19702
-0.66093445 58.033051 354.19443
-0.5480957 57.976929 354.9379
0.57676697 57.986916 355.41827
3.0508575 58.123032 356.18814
-1.2230225 57.756588 350.44702
-1.5503387 57.640499 351.70352
-0.29858398 57.59502 352.92001
-0.40989685 57.508961 353.91946
3.0861359 57.478996 356.11224
-1.3490295 57.043667 351.44885
-2.0484314 56.685944 353.02542
-0.27233887 57.039124 352.89752
-0.48304749 56.81094 353.94354
-0.1446991 56.785294 354.43506
0.29179382 56.902695 354.88141
3.1109161 56.921207 356.09091
-2.3627625 56.158005 352.51379
-2.0215607 56.132599 353.00238
-1.6813202 56.107124 353.49146
3.3666992 56.392544 355.81595
-2.3358307 55.604656 352.49069
-1.9953308 55.579197 352.97998
4.9964905 57.390507 347.37006
0.0066833496 55.818283 354.34442
0.34355164 55.792454 354.83719
-2.0864105 55.078995 352.21399
-1.9684296 55.02565 352.95691
-2.0741425 54.944603 353.95096
0.36917114 55.237091 354.81552
-2.0601196 54.524902 352.19162
-1.9421539 54.471951 352.93466
-1.2640839 54.420464 353.91464
0.98512268 54.425419 354.87256
-2.0331268 53.970737 352.16867
-1.9151306 53.918194 352.91165
-1.6751251 53.750942 353.44797
-1.2378082 53.866554 353.8923
-0.90019226 53.84053 354.383
1.0106659 53.869167 354.85068
-1.3361511 53.495533 351.3811
-0.8739624 53.286526 354.3606
1.0369263 53.312969 354.82819
-1.5327148 52.913704 351.61346
-1.8617706 52.810345 352.86639
-1.1852112 52.758446 353.84772
-0.84765625 52.732426 354.33838
0.60995483 52.705055 355.31085
-1.1817169 52.525223 351.28769
-1.6117554 52.281563 352.58997
-1.5955963 52.089481 353.38031
-0.59719849 52.203297 354.06372
0.86219788 52.174858 355.03653
-1.0508423 52.044601 350.26266
-1.2553711 51.827343 351.31277
-1.3617554 51.751595 352.31351
-0.7956543 51.623672 354.29443
1.1144104 51.643566 354.76212
-1.3470459 51.321472 350.54291
-1.4519653 51.246716 351.54517
-1.3353271 51.196304 352.29123
-0.99588013 51.170212 352.78241
-0.65724182 51.143986 353.27396
-0.3196106 51.117699 353.76605
1.1407928 51.086967 354.73969
-1.3191528 50.764687 350.5192
-1.5653381 50.589405 351.63794
-1.5070496 50.360226 352.36035
-1.0686188 50.474339 352.80563
-0.63084412 50.58839 353.25168
1.3944092 50.553978 354.46375
-1.2918396 50.207745 350.49622
-1.4806519 49.80513 352.33807
-1.141449 49.778748 352.82886
5.6406708 51.612621 346.651
1.8766632 50.04332 353.93265
-1.0405273 49.673653 350.21652
-1.1464386 49.601673 351.22079
0.21128845 49.496204 353.19055
1.6745605 49.461903 354.16522
-0.6880188 49.278976 349.88895
-1.0361023 48.966549 351.0578
-0.87875366 48.878578 351.73605
-0.7638855 48.829956 352.48325
1.3647003 48.930553 353.64786
-0.53518677 48.602158 349.6539
-0.95230103 48.182159 351.75989
-0.83686829 48.134182 352.50632
4.6787872 49.664814 347.69205
-0.50776672 48.043213 349.63092
-0.83999634 47.952572 350.89563
-0.64268494 47.403999 349.75989
-0.91345215 47.255627 350.91956
-0.79756165 47.20829 351.66794
-0.35783386 47.321091 352.11435
-0.12055969 47.155022 352.65372
-1.1038666 46.605751 350.19406
-0.98631287 46.559052 350.94266
-0.53207397 46.485527 352.18384
-0.19380188 46.458744 352.67645
-0.95896912 46.001698 350.91977
-0.84318542 45.955467 351.66806
-0.50471497 45.928596 352.16089
-0.16722107 45.901745 352.65424
-0.3140564 45.726688 349.39697
-0.7071991 45.463303 350.64014
-0.8157959 45.398426 351.64514
-0.47741699 45.371635 352.13797
-0.13990784 45.3447 352.63126
0.19592285 45.317654 353.12573
-0.4548645 44.92387 350.35965
-0.33969116 44.878429 351.11026
-0.45074463 44.814445 352.11572
-0.11328125 44.787502 352.60898
0.2232666 44.760509 353.10278
-0.42669678 44.365177 350.33603
-0.31219482 44.320179 351.08737
0.026977539 44.293171 351.58096
-0.086624146 44.230202 352.58682
0.14796448 44.064938 353.12643
0.051269531 43.841591 349.79709
-0.28479004 43.761822 351.06445
0.054412842 43.734821 351.55798
0.30567932 43.298927 349.51419
-0.031219482 43.220543 350.78363
0.081848145 43.176395 351.53503
0.19377136 43.132252 352.2854
-0.036437988 42.624252 349.86783
-0.33079529 42.507404 351.06412
-0.21762085 42.463905 351.81433
-0.0050964355 42.557812 352.51886
-1.192627 41.807365 351.10794
-0.85440063 41.780083 351.60052
-0.5171051 41.752846 352.09363
-0.62974548 41.694336 353.09662
-0.61422729 41.417866 350.5242
-0.82693481 41.222839 351.5777
-0.48968506 41.195499 352.0708
-0.37817383 41.153118 352.81937
-0.62057495 40.813622 350.51672
-0.79943848 40.665485 351.5549
-0.46290588 40.638084 352.04868
-0.35150146 40.596119 352.79727
-0.88514709 40.149525 350.78174
-0.77192688 40.107941 351.53207
-0.43540955 40.080544 352.02579
-0.099914551 40.053116 352.51996
-0.63337708 39.605145 350.50174
-0.74443054 39.550392 351.50928
-0.40792847 39.522896 352.00302
1.0477142 39.467361 352.97714
-0.38087463 39.059612 350.22098
-0.71684265 38.992741 351.4866
1.0745239 38.908463 352.95493
-0.12770081 38.513039 349.93939
-0.23988342 38.46011 350.95013
0.09664917 38.432472 351.44525
0.43293762 38.404915 351.94016
0.76756287 38.377171 352.43613
-0.10064697 37.953045 349.91736
0.013000488 37.913269 350.66968
0.1242218 37.873508 351.42245
0.45979309 37.845829 351.918
0.7951355 37.818218 352.4133
1.1287537 37.790432 352.90979
0.37934875 37.416447 349.37524
0.040664673 37.353733 350.64688
0.48739624 37.286766 351.8952
0.82194519 37.259026 352.39114
-0.044509888 36.832897 349.87109
0.29371643 36.805199 350.36642
0.51498413 36.727619 351.87234
0.84883118 36.699722 352.36905
1.1824493 36.672028 352.86545
0.095077515 36.32172 348.83408
-0.016036987 36.272705 349.84763
-0.0065460205 36.099262 350.64679
0.89195251 36.053928 351.38065
0.8901062 35.967052 352.23514
0.12358093 35.760418 348.81064
1.0219421 35.888855 348.73773
0.49195862 35.171185 349.28256
1.050293 35.068306 351.28992
1.3848877 35.04039 351.78729
0.52047729 34.609585 349.25919
0.30187988 34.428951 350.32065
0.63890076 34.401005 350.81613
0.97424316 34.372944 351.31284
0.97824097 34.201511 352.1124
1.2289429 34.073685 348.45456
0.78916931 33.714291 350.58066
1.0307922 33.502316 348.69171
1.1329193 33.386112 351.22232
1.2862854 32.946907 348.40756
1.0251465 32.81176 349.5441
0.94854736 32.726528 350.48935
1.5424652 32.390461 348.12253
3.5650024 32.221119 351.11984
1.6822052 31.791494 348.85898
1.5630798 31.75036 349.87924
3.2579346 31.684999 350.59641
3.5920868 31.656713 351.09756
1.9388428 31.233744 348.57434
2.0537872 31.112078 349.27872
2.4026184 30.908937 349.66547
2.9499664 31.148851 350.07352
3.0555115 31.114691 350.83374
2.4253845 30.680292 348.02615
2.7641296 30.651896 348.52615
2.97789 30.584307 350.05066
3.5173035 30.488672 352.07361
2.6833038 30.119646 347.73981
3.360672 30.062805 348.741
3.0058594 30.019764 350.02774
3.7755585 29.929846 351.79181
2.4822388 29.548962 347.9798
3.1580505 29.492079 348.98083
2.927597 29.321503 350.05106
3.2624054 29.293074 350.55145
3.5956116 29.264641 351.05301
3.6968384 29.232096 351.8147
2.5104065 28.983225 347.95703
3.1867981 28.926294 348.95724
3.6186676 28.534687 351.83685
2.5392303 28.417336 347.93347
2.877182 28.38879 348.43411
3.2148438 28.360353 348.93439
3.5508575 28.331913 349.43591
3.0299835 27.692686 348.19345
3.1365967 27.661392 348.95764
3.3535156 27.675289 349.61877
3.3448029 27.599052 350.48416
3.677887 27.570517 350.9856
2.9517822 26.993525 348.21677
3.0582275 26.962744 348.98087
3.3938751 26.934103 349.48203
3.4977417 26.903479 350.24509
3.5256958 26.338243 350.22214
3.6270752 26.308228 350.98553
3.3456726 25.832211 348.67136
3.4499817 25.802528 349.43625
3.5530396 25.772848 350.19998
3.9442749 25.560768 347.26151
3.3737946 25.265673 348.64847
3.4780273 25.236485 349.41339
3.401947 24.699135 348.62561
3.5382233 24.424133 347.74496
3.4301453 24.132397 348.60275
4.6638489 24.045404 349.84903
3.4589844 23.565714 348.57925
4.6919403 23.478071 349.82602
3.7184753 22.997128 348.29242
4.3864288 22.939432 349.29977
3.7467499 22.429691 348.26959
3.7749939 21.862154 348.24673
3.930191 21.316891 347.19177
3.6960754 21.1642 348.26947
3.9592743 20.748106 347.16824
4.2949829 20.719048 347.67218
4.2198486 20.174934 346.87939
4.3239594 20.150263 347.64862
4.2489471 19.605452 346.85587
3.8524323 19.433392 348.10382
4.5096436 19.030396 346.56686
3.7017365 18.763937 348.2236
4.5388641 18.460209 346.54337
4.2267609 17.767031 346.83267
3.7583313 17.628563 348.17804
4.4529419 17.147343 346.55725
4.0186005 17.053541 347.89008
5.0923157 16.73382 345.93869
4.278183 16.477371 347.60278
4.7793732 16.04159 346.22876
4.3072968 15.908288 347.57928
4.4657593 15.350717 346.51956
4.3356781 15.339152 347.55646
5.0714111 14.890319 345.91379
4.3641205 14.770019 347.53372
5.1619263 14.249522 345.77997
4.7854767 13.629249 346.18246
4.5818939 13.069132 346.4263
4.2321777 12.807538 347.55554
5.5450745 12.452309 345.33002
4.2606354 12.238501 347.53281
5.3396301 11.891533 345.57623
4.7913971 11.217701 346.13596
4.3175354 11.100029 347.48727
4.4780426 10.533467 346.42609
4.5073242 9.962985 346.40262
4.5365448 9.3924236 346.37909
4.565094 8.8217783 346.35638
4.5944214 8.2511129 346.33301
4.7548523 7.6777744 345.26849
4.8551636 7.664257 346.0433
5.0172577 7.0892153 344.97601
5.1173096 7.0762682 345.75204
5.0467377 6.5166845 344.95261
4.5707245 6.4141436 346.31
4.8544464 5.6951551 345.021
4.4902039 5.7190809 346.33136
2.4815369 5.1407318 346.78073
0.52001953 128.6628 362.44122
0.495224 127.96636 362.30548
0.50694275 127.42574 362.2688
0.51849365 126.88605 362.23212
0.51591492 126.44107 361.86874
0.52764893 125.90142 361.83215
2.262558 125.7567 362.27573
0.53935242 125.36073 361.79541
2.2629242 125.19164 362.15955
0.53674316 124.91382 361.43094
1.7015991 124.91216 361.61273
1.1311493 124.37182 361.48508
1.7050476 124.11163 361.9953
1.1269073 123.47511 360.75391
1.1188812 122.65015 361.05798
1.1347961 121.87605 361.52014
1.1466064 121.33436 361.48343
1.7383423 120.64201 363.06549
2.3397369 120.8035 363.06873
2.9412231 120.96487 363.07401
1.170578 120.10484 362.936
1.7500763 120.10234 363.02884
2.3422089 120.01022 363.44772
1.1823578 119.56617 362.89941
1.7618256 119.56362 362.99326
2.3539886 119.47149 363.41217
0.022888184 119.48572 361.68869
0.60943604 119.25612 362.2757
1.1941376 119.02644 362.86377
1.7736511 119.02395 362.9566
2.3658142 118.93274 363.37659
0 118.75648 361.66513
0.61140442 118.57783 362.40921
1.2059479 118.48778 362.82721
1.7854767 118.48422 362.92096
2.3776703 118.39401 363.341
0.62322998 118.03815 362.37256
1.217804 117.94803 362.79156
1.7973175 117.9455 362.88541
2.3699036 117.77476 363.25775
0.039077759 117.58845 361.91891
0.6350708 117.49848 362.33594
1.22966 117.40938 362.75497
0.63220215 117.04539 361.97406
1.2415466 116.86964 362.71936
1.8211365 116.86609 362.81314
0.62916565 116.59142 361.61014
1.2393036 116.4166 362.35645
1.8100586 116.16431 362.86823
3.5460052 116.48757 362.41425
0.62609863 116.13645 361.24619
1.2369995 115.96152 361.99448
3.5337067 116.11836 361.72287
4.1143341 116.11353 361.82159
0.63807678 115.5947 361.21039
1.2346039 115.50649 361.63147
1.8296509 115.41727 362.05255
3.5456848 115.57663 361.68716
0.66610718 115.55083 360.33273
1.2176819 115.1353 360.93912
1.8278046 114.96227 361.68958
2.9527893 114.87549 361.6463
3.5458527 114.78593 362.07236
0.60148621 114.85151 359.82159
1.2151337 114.67839 360.57401
2.9407043 114.17058 361.70319
3.5337372 114.08109 362.1283
1.2271576 114.13573 360.5372
1.8240814 114.04734 360.9613
3.5456543 113.54031 362.09354
1.2391968 113.592 360.50128
1.8221741 113.58845 360.59604
2.4048004 113.58482 360.69177
2.9887695 113.24926 361.53995
3.5699158 112.91593 362.38428
0.65275574 113.13666 360.04135
1.2512054 113.04935 360.46445
1.8342438 113.04578 360.5592
2.9765625 112.54542 361.59592
3.5696411 112.45685 362.02206
0.6647644 112.59399 360.00452
2.9885712 112.0027 361.56012
3.5816803 111.91513 361.9863
-2.4090271 114.98179 352.36777
-1.7655334 115.31261 352.26239
0.69204712 111.96751 360.29712
2.4158478 111.90179 360.42603
2.9875336 111.54276 361.1958
-2.9942474 114.42796 352.24451
-2.3781586 114.34158 352.67245
-1.6553955 112.09106 358.38605
0.67375183 111.58851 359.60126
2.4043884 111.08657 360.73376
2.9995728 111.00002 361.15997
-3.0010071 113.96004 351.86176
-2.3841858 113.87362 352.29071
-1.6432648 111.54646 358.34814
0.71629333 110.88219 360.22348
2.9984589 110.53915 360.79465
-2.9503784 113.23531 352.50882
-1.6661072 111.16473 357.64615
0.70454407 110.1773 360.28036
2.4009247 110.16184 360.00186
2.9973602 110.07621 360.43015
-2.9613037 112.5174 352.56592
-2.3089142 112.26395 353.6777
-1.6598511 110.37486 358.03537
-1.0066528 109.96838 359.5918
0.69250488 109.47239 360.33731
2.4129944 109.61813 359.966
3.0095215 109.53248 360.39426
-2.9723358 111.79939 352.62405
-2.3197937 111.54808 353.73392
-1.6535797 109.58813 358.42276
-1.0155792 109.34424 359.50623
-0.41442871 109.26109 359.92755
-2.9599304 111.2459 352.58453
-2.3258667 111.07899 353.35413
-1.6235962 108.96357 358.71741
-1.0033112 108.80058 359.46936
-0.4261322 108.55718 359.98453
0.15762329 108.55276 360.07721
0.75640869 108.46843 360.50052
2.4623413 108.69095 359.80038
3.0470886 108.3652 360.65213
3.628891 108.35935 360.75177
-2.9668427 110.77585 352.2037
-2.3134003 110.52642 353.31567
-1.6113586 108.41898 358.67947
-0.43795776 107.85334 360.0405
0.14567566 107.84883 360.13416
0.72900391 107.84434 360.22781
2.4355164 108.06393 359.52652
3.0327454 107.97925 359.95581
3.6284027 107.8945 360.38617
-2.319519 110.05632 352.93582
-1.5990906 107.87433 358.64252
-0.99580383 107.79214 359.06494
0.15788269 107.30518 360.09726
3.0449677 107.43452 359.91989
3.6534119 107.27185 360.681
-2.3339386 109.40384 352.83762
-1.0110321 107.19264 358.86871
-0.4302063 106.84483 359.63705
0.17012024 106.76252 360.06042
2.4459229 107.05247 359.12286
3.0704956 106.8129 360.21481
-1.0054321 106.85966 358.32761
-0.41792297 106.30116 359.60016
0.18237305 106.21987 360.02362
0.76571655 106.21425 360.1192
2.4721832 106.42886 359.41766
3.0828247 106.26819 360.17886
-1.6155701 106.47326 357.53348
-1.0103607 106.39098 357.95782
-0.42237854 105.8343 359.23349
0.19462585 105.67622 359.98672
2.4703979 105.96109 359.04984
3.0692596 105.56315 360.23773
-2.8751984 107.36128 353.56897
-2.256134 107.52066 353.56088
-1.6212616 106.00363 357.16263
-1.0052948 105.6081 358.34744
-0.41601563 105.49934 358.69226
0.1907959 105.20938 359.62006
0.62564087 107.6585 352.7439
2.4686584 105.49242 358.68103
3.0556183 104.85916 360.29572
-2.8820953 106.88812 353.18994
-2.2491455 106.72736 353.95789
-1.6088409 105.45707 357.12454
-0.39776611 104.74601 359.1597
0.203125 104.66566 359.58417
0.63818359 107.10386 352.70633
1.9103851 104.87544 358.87927
2.5091705 104.79372 359.30972
-2.8695526 106.3356 353.15051
-2.1992493 106.02007 354.59796
-1.6144714 104.98649 356.75272
-0.36933899 104.67273 358.27124
0.19935608 104.19682 359.21738
1.92276 104.32973 358.84323
2.5089111 104.11614 359.4473
3.0801392 103.77073 360.22394
3.6752319 103.6889 360.65543
-2.8764191 105.86045 352.77133
-1.5945587 104.23092 357.22391
-0.96817017 103.9722 358.23547
-0.4067688 103.80748 358.42297
0.17913818 103.80197 358.51758
1.9351654 103.78403 358.80722
2.4959259 103.30772 359.75848
3.0924835 103.22602 360.18796
3.7134094 102.99656 361.27756
-2.8443756 105.23046 353.07367
-1.5964661 103.65591 357.10617
0.20782471 103.18243 358.81158
1.9328156 103.31339 358.43729
2.5365295 102.61531 360.38254
3.1191254 102.30259 361.23413
-2.8815918 104.35394 353.22974
-2.229538 104.12182 354.33682
-1.5366364 102.65316 358.4938
0.19467163 102.47746 358.86948
1.9188843 102.60628 358.49713
2.5347443 102.14545 360.01663
3.1186523 101.52785 361.62033
-2.84935 103.72499 353.53116
-2.2170105 103.5713 354.29749
-1.5241852 102.10851 358.45688
-0.95372009 101.63886 359.39932
0.19799805 101.6996 359.25845
1.9496307 101.68048 359.55011
2.5471191 101.60079 359.97971
3.1173401 101.0578 361.25739
-2.2043457 103.01973 354.25912
-1.5298004 101.63583 358.08688
-0.92379761 101.02348 359.69153
-0.34013367 101.01792 359.78613
1.9620514 101.13577 359.51416
2.5614014 100.75311 360.69797
3.1296387 100.51509 361.22159
-2.2297363 102.61785 353.54196
-1.5244904 100.85995 358.4769
-0.94647217 100.62337 358.99551
-0.32771301 100.47427 359.74927
1.3599396 100.74168 358.71646
1.95961 100.66294 359.14706
2.5473022 100.05109 360.7561
-2.1978912 101.99084 353.84448
-0.93403625 100.0787 358.95856
-0.31529236 99.930626 359.71237
0.90510559 98.587486 363.53876
1.3723755 100.19599 358.68042
1.9720612 100.11732 359.11011
2.5596619 99.508385 360.72025
-1.5285034 100.14178 357.31061
-0.90402222 99.464317 359.25079
-0.30281067 99.386978 359.67548
0.34060669 98.056946 363.4046
0.93305969 97.980911 363.8255
1.3848419 99.650322 358.64343
1.9845123 99.572594 359.07413
2.556427 99.235115 359.85223
-1.5233459 99.365891 357.70068
-0.92680359 99.060509 358.55252
0.32484436 97.46035 363.21463
0.95069885 97.152039 364.52481
2.541214 98.631386 359.65976
-1.55513 98.73143 357.42642
-0.91433716 98.515465 358.51556
0.31336975 96.669258 363.51785
0.93727112 96.460312 364.58057
1.9945221 98.551292 358.66888
2.5536194 98.086555 359.62387
-2.6401062 97.919098 358.53018
-0.9196167 98.039841 358.14636
-0.2331543 96.584412 362.5527
0.34518433 96.576942 362.65024
0.93380737 95.990387 364.22369
1.9921265 98.074753 358.30063
2.591629 97.997292 358.73334
-2.627594 97.374802 358.49225
-0.88922119 97.425186 358.44159
-0.22068787 96.045258 362.51608
0.33352661 95.785835 362.95346
0.93040466 95.519325 363.86673
1.9896393 97.597252 357.93127
2.5897369 97.520226 358.36401
-2.6150055 96.830429 358.45432
0.33383179 95.121452 363.08679
0.9427948 94.981705 363.83124
2.5585632 97.180107 357.32599
-2.6281433 96.128937 358.51245
-2.0387115 96.025696 358.85553
0.34625244 94.582825 363.05124
0.95518494 94.444008 363.79572
2.5858459 96.563019 357.62411
-2.0371094 95.354752 358.99149
-1.4342499 95.281364 359.41541
0.33769226 94.299591 362.19766
0.93579102 94.035927 363.11414
2.5854187 95.789162 358.01743
-2.0245514 94.810806 358.95459
-1.4216614 94.737885 359.37759
0.33784485 93.634552 362.33197
0.94822693 93.497101 363.07852
2.5965118 95.534248 357.21646
-2.0310059 94.332695 358.58624
-1.4089813 94.194229 359.34067
0.38354492 92.966774 362.94244
0.97668457 92.894218 363.36554
2.6101227 94.790878 357.69049
-2.0182648 93.787949 358.54935
-1.4147644 93.715675 358.9733
-0.19850159 92.49971 362.48474
0.39607239 92.427841 362.90683
0.98924255 92.35582 363.32996
1.5655518 92.346848 363.43149
-1.4020844 93.171432 358.93637
-0.1860199 91.960358 362.44812
0.40856934 91.888985 362.87027
1.0017853 91.817184 363.29437
1.5934296 91.745422 363.7175
2.6649628 93.563194 358.28519
-2.5956116 93.085777 357.37009
-2.0046844 92.983513 357.71722
-1.4264221 92.755676 358.23837
-0.76063538 91.70903 361.57147
-0.19070435 91.483589 362.08783
0.40455627 91.412361 362.51096
0.92736816 91.094841 362.79895
1.5638885 91.059723 363.60049
2.5894012 93.254044 356.65051
-2.6049957 92.288544 357.68088
-2.0185242 92.281433 357.77536
-1.4137115 92.210197 358.20035
-0.77481079 91.014183 361.629
-0.1781311 90.943634 362.05118
1.5326385 90.484627 363.18756
2.5883636 92.539177 356.89304
-2.5922546 91.742737 357.64285
-0.79814148 90.59745 360.94095
-0.20021057 90.527107 361.36514
0.42973328 90.333099 362.43866
1.0074921 90.324028 362.53918
-2.619339 91.323097 356.94067
-1.9738007 91.126602 358.03088
-1.3695374 91.056107 358.45697
-0.18757629 89.985947 361.3284
0.40895081 89.915733 361.7536
0.97993469 89.763084 362.13306
1.5697479 89.620956 362.69925
2.627243 91.757271 356.12912
-2.6065979 90.776138 356.90256
-1.9609833 90.581001 357.99289
-1.35672 90.510757 358.41998
-0.71852112 89.822426 360.67896
-0.17497253 89.444679 361.29166
0.36610413 89.067184 361.90643
-2.5936737 90.228958 356.86444
-1.9866943 90.15934 357.29153
-1.3900299 89.872063 358.14752
-0.16227722 88.903435 361.25491
2.6822662 90.718513 356.21521
-1.9931641 89.674187 356.92084
-1.3676453 89.213615 358.47229
-0.7361908 88.067108 361.78778
-0.14230347 88.089371 361.96313
0.45289612 88.020332 362.38837
1.0026398 87.857635 362.58316
2.6363678 90.042274 355.85947
-1.3728485 88.565567 358.49847
-0.73587036 87.40522 361.9213
-0.13981628 87.337112 362.34464
0.47160339 87.210182 363.0918
2.6348114 89.365753 356.0011
-1.9756165 88.363808 357.27451
-1.3600159 88.020325 358.46149
-0.70510864 86.806717 362.20947
-0.12710571 86.797287 362.30893
0.46746826 86.729561 362.7323
2.6477203 88.814919 355.96378
-1.9513092 87.543076 357.99628
-1.2528534 86.697151 361.23685
-0.71044922 86.324905 361.84793
-0.11437988 86.257545 362.27228
0.48020935 86.190056 362.69666
2.6758118 88.203194 356.26328
-1.957962 87.056297 357.62741
-1.2771454 86.271942 360.54834
-0.71583557 85.841957 361.4873
0.45901489 85.765213 362.01212
2.6735992 87.712975 355.89014
-1.9645691 86.568764 357.25751
-0.70306396 85.301109 361.45056
-0.12399292 85.291496 361.55002
0.45477295 85.28157 361.65143
-1.9516144 86.021774 357.21939
-1.2888641 85.301826 359.81982
-0.70855713 84.81675 361.08789
-0.11125183 84.750389 361.51428
0.46755981 84.740486 361.61469
-1.3331299 85.408157 357.61063
-0.71400452 84.331253 360.7261
-0.13383484 84.321487 360.82547
0.48039246 84.199181 361.57895
7.3945313 86.031326 356.31033
-1.9848785 85.099792 356.14447
-1.3011475 84.804291 357.90451
-0.12101746 83.779327 360.7887
0.45887756 83.769218 360.89008
7.385849 85.596321 355.59592
-1.3453217 84.428291 356.86951
-0.72520447 83.357628 359.99835
-0.14385986 83.347572 360.09872
0.47172546 83.22686 360.85327
6.74823 84.741486 355.64758
7.3563538 84.834282 355.69272
-1.3996582 83.839546 356.2627
-0.67539978 82.704689 360.61469
0.46733093 82.739128 360.4903
6.7845459 84.073326 356.28918
7.3701019 84.06134 356.40244
7.9552155 84.049072 356.51566
-1.2619019 82.226585 360.15137
-0.66244507 82.162338 360.57788
-0.06451416 82.097946 361.00439
6.1871643 83.646553 355.46445
6.7858734 83.577835 355.91473
7.3831024 83.508804 356.36703
7.9682617 83.496468 356.48129
-1.2489624 81.683784 360.11353
-0.64949036 81.619774 360.54102
-0.091567993 81.200256 361.4837
6.2002106 83.093163 355.42795
6.7989044 83.024788 355.8793
7.3961334 82.956253 356.33163
7.9812622 82.943924 356.44583
-1.2550507 81.194283 359.74847
-0.63647461 81.07724 360.50421
6.1809082 82.384186 355.49274
6.8119354 82.471802 355.84283
7.4091644 82.403648 356.29517
-1.2420502 80.650658 359.71161
-0.65252686 80.383698 360.5629
-0.072525024 80.37307 360.66425
0.52452087 80.309807 361.09186
6.8250732 81.918655 355.80734
7.422287 81.85099 356.25974
-1.2480469 80.159424 359.34647
-0.088806152 79.679726 360.72284
0.4907074 79.668861 360.82526
6.8381805 81.36541 355.77188
7.4353943 81.298157 356.2243
-1.2349396 79.615181 359.30954
-0.63421631 79.552727 359.73819
-0.0039367676 78.932068 361.9863
0.59727478 79.323929 361.24997
6.8395538 80.866402 355.39621
7.4158478 80.590569 356.28915
-1.2409668 79.122322 358.94336
-0.65313721 78.94268 359.54639
-0.069458008 78.847313 359.89908
0.49909973 78.63456 360.42422
6.8199463 80.157715 355.461
-1.3307343 80.430641 353.01691
-0.68273926 78.669342 358.34708
-0.086105347 78.152969 359.95767
0.49449158 78.141739 360.06097
1.0748138 78.130424 360.16434
-1.3094788 79.6688 353.60098
-0.66966248 78.123306 358.30804
-0.0496521 78.010841 359.07101
6.8651123 79.0662 355.58209
-1.3503571 79.143951 352.93268
-0.068649292 77.398773 358.87814
0.5153656 77.303841 359.23386
1.1009369 77.042267 360.09149
-1.9338989 78.266411 353.62552
-0.77050781 78.297768 353.4837
0.49824524 76.608223 359.29337
1.0968323 76.547394 359.72614
7.4810028 78.134857 354.99036
-2.5121918 77.723404 353.48883
-1.9001465 77.662369 353.92441
-0.73776245 77.692818 353.78455
-0.12820435 77.631287 354.22412
0.51139832 76.063103 359.25644
1.1099701 76.00264 359.68915
1.7071838 75.941956 360.12393
6.861908 77.490112 354.60062
7.4829865 77.631271 354.61438
-2.4987183 77.170235 353.45038
-1.8866272 77.109703 353.88596
-0.72425842 77.139534 353.74606
-0.094116211 75.626221 358.45621
0.52455139 75.517761 359.21939
1.1231537 75.457817 359.65219
7.4291077 76.767853 354.78049
-2.4852295 76.617126 353.41089
-1.8730927 76.556961 353.8475
-1.2624054 76.496574 354.28513
-0.67237854 76.485947 354.38535
-0.080871582 75.07988 358.41913
0.53778076 74.972404 359.18243
1.1363831 74.912766 359.6152
1.7335205 74.852966 360.05005
2.3291931 74.793022 360.4859
-2.4927216 76.113441 353.03302
-1.8867035 75.919388 353.76221
-0.6703949 75.732529 354.78381
0.5330658 74.474449 358.81491
1.1347504 74.252518 359.75284
1.715683 74.159012 360.11069
2.3161926 74.165001 360.40414
2.8426971 73.984642 360.42383
7.5230713 75.96431 354.50656
-2.5002747 75.608734 352.65405
-1.9274902 75.196976 353.63205
-1.316391 75.137581 354.0687
-0.68734741 75.029594 354.8439
-0.029891968 74.381096 357.48575
0.52828979 73.97538 358.44727
-1.8937531 75.043785 352.71271
-1.2828674 74.536835 354.3678
-0.67382813 74.477814 354.80551
0.52359009 73.47522 358.07956
1.1589355 73.323616 359.17563
-1.8903961 74.289604 353.11411
-1.3093719 74.079559 353.65332
-0.66033936 73.92585 354.76712
0.55503845 72.881813 358.37308
1.1548767 72.823715 358.80896
1.6998138 72.59713 359.15625
2.3022461 72.603821 359.45071
2.8981476 72.545341 359.88864
-1.9076843 73.584427 353.17612
-1.2958374 73.526108 353.61478
-0.66616821 73.420868 354.39114
0.55027771 72.380615 358.00433
1.1508026 72.322739 358.44125
2.8795776 71.851143 359.94931
-2.4646606 72.994682 353.37695
-1.2822571 72.972557 353.57632
-0.65260315 72.868202 354.35269
0.56367493 71.833168 357.96719
1.1641998 71.775734 358.40417
1.7631989 71.71817 358.84207
-0.67788696 72.40757 353.638
0.56211853 71.171654 358.10577
1.1676941 70.97953 359.01242
2.8904724 70.962433 359.04205
-2.416153 71.842072 353.6366
1.1451416 70.340836 358.85608
2.8715668 70.345642 358.85086
-2.4084167 71.014755 354.29303
-0.61143494 71.209587 354.23831
0.58599854 70.233765 357.52304
1.7567902 69.738319 359.25598
2.8849182 69.798447 358.81479
-2.4083862 70.348396 354.43228
-1.7984161 70.29277 354.86914
-1.2099762 70.281013 354.97134
0.58117676 69.549782 357.69632
1.1542053 69.290558 358.45105
1.753067 69.234901 358.8891
-2.3947144 69.796333 354.39386
-1.7847137 69.741211 354.83081
-1.1963043 69.729401 354.93195
0.567276 68.798515 357.9769
1.1676941 68.743446 358.41394
1.76651 68.688179 358.85202
-2.4237061 69.330513 353.6799
-1.7709961 69.189598 354.79138
0.59005737 68.672935 356.74475
1.1811676 68.19619 358.37683
1.779953 68.141357 358.81494
-2.4314575 68.819916 353.30362
-1.7779999 68.680267 354.41617
-1.1688232 68.625793 354.85519
0.58976746 67.933968 357.13806
1.1768188 67.690216 358.00778
1.7934875 67.594513 358.77783
-1.7850494 68.170082 354.03992
1.1545105 67.223976 357.30673
1.772522 67.128975 358.07883
-2.4038086 67.712219 353.22458
-1.7919922 67.658577 353.66354
-1.1816254 67.604782 354.10358
0.63101196 67.023689 356.63095
-2.3899841 67.158218 353.185
-1.2084503 67.133942 353.38831
0.4861145 67.261902 352.34
1.1833649 66.416092 356.32101
1.7925873 66.197235 357.38528
2.9797058 66.192505 357.79507
-2.3687744 66.451447 353.66321
0.58148193 66.822006 352.84735
1.7434998 65.642204 356.63617
2.3445435 65.589096 357.07941
2.9604187 65.496353 357.8566
3.5420685 65.482391 357.96875
-2.3616943 65.634789 354.32028
1.7747345 65.052704 356.93292
2.3581848 65.03907 357.04205
2.973999 64.947311 357.8194
3.5556641 64.933372 357.93155
0.56552124 65.511971 352.90591
1.7707977 64.541306 356.56055
2.3718567 64.489029 357.00482
2.9876404 64.398132 357.78314
3.5692749 64.384079 357.89526
-2.3502197 64.661827 353.68454
-1.7241058 64.478645 354.68063
1.7845612 63.990692 356.52322
2.3855743 63.93882 356.96747
2.9850159 63.886848 357.41278
4.1337585 63.896561 357.30487
-2.363266 64.053734 353.52783
-1.7101288 63.926445 354.6412
1.7982788 63.439964 356.48593
2.399292 63.388496 356.93018
2.9647369 63.190781 357.4743
4.1474762 63.346062 357.26855
-2.3710632 63.537712 353.15018
-1.7171936 63.411804 354.26563
-1.0434418 63.654266 354.50732
1.8023682 63.018288 355.89542
2.4130554 62.838158 356.89288
-2.3570404 62.983406 353.11069
-1.72435 62.896034 353.88907
1.7904968 62.411568 355.73981
2.4097748 62.324219 356.52133
3.009903 62.273499 356.96768
3.5925446 62.25922 357.08081
4.174881 62.244858 357.19495
-1.7103271 62.342537 353.84955
1.8043365 61.859539 355.70239
2.4065247 61.809258 356.14874
2.9906769 61.79504 356.2608
4.132019 61.523216 357.06787
-2.3288116 62.277454 351.80844
-1.7173615 61.825054 353.47281
-1.1071625 61.775711 353.91513
1.818161 61.307381 355.66397
-2.3292694 61.610977 351.94971
-1.7308044 61.452171 352.57492
-1.113739 61.257595 353.53735
1.8320618 60.755157 355.62656
2.4342804 60.705708 356.07394
3.6340332 60.606781 356.96985
-2.3445129 60.83559 352.27393
-1.753006 60.822422 352.37698
-1.1203308 60.738499 353.15958
-0.51716614 60.293228 354.81845
0.10850525 60.210217 355.59619
1.8290405 60.094299 355.76715
2.413681 60.008369 356.13644
2.9628143 59.848385 356.3494
3.5909271 59.884838 356.84274
4.1604614 59.750462 357.24637
-2.3303223 60.279671 352.23325
-1.7388763 60.266434 352.33734
-1.1268768 60.21825 352.78067
-0.52330017 59.774914 354.44269
0.12251282 59.658459 355.5578
1.8421631 59.684589 355.21436
2.3930054 59.311333 356.19894
2.9766693 59.296761 356.31204
3.5599823 59.282017 356.42615
4.1742401 59.199684 357.21005
-2.3603973 59.792683 351.51102
-0.50918579 59.221554 354.40421
0.15597534 59.072968 355.85474
1.8561707 59.131462 355.17691
2.9904938 58.745033 356.27469
3.5737915 58.730186 356.38873
4.1724091 58.682072 356.83826
-2.3239594 59.201443 351.81265
-1.7104492 59.154057 352.258
-1.0984955 59.106716 352.70239
-0.49513245 58.668167 354.36472
0.097290039 58.443085 355.24649
0.6678772 58.25135 355.79089
1.8354645 58.433331 355.23932
2.4380646 58.385731 355.68781
3.0043945 58.193115 356.2373
3.5876007 58.178276 356.35132
4.1862183 58.130638 356.8009
-1.7331238 58.523083 352.05899
-1.1182098 58.405491 352.76465
0.057525635 57.778748 354.97253
0.68185425 57.699677 355.7525
1.814682 57.735332 355.30276
3.0013733 57.673615 355.86337
4.1843262 57.611351 356.42899
-1.7465515 58.140224 351.15347
-0.46685791 57.561054 354.28769
0.67671204 57.179756 355.37863
3.5827332 57.137928 355.60449
4.1824799 57.090996 356.05609
-1.7105713 57.549618 351.45609
-1.1184082 57.535843 351.5611
-0.46864319 56.900719 354.42828
0.085647583 56.67313 354.89566
0.6907959 56.627308 355.34018
1.2945251 56.581413 355.78677
2.9953003 56.631218 355.11545
3.5966492 56.584709 355.56705
4.1963654 56.538269 356.01865
-2.2238007 56.526833 353.55396
-1.1598663 56.86462 351.28278
0.079910278 56.151119 354.51965
0.68574524 56.105679 354.96628
1.3086243 56.029366 355.74841
3.0093079 56.077396 355.07791
3.6106415 56.031387 355.52954
4.2104034 55.985302 355.98218
-2.2095947 55.97271 353.5134
-1.0323639 55.944614 353.72556
0.69985962 55.552525 354.92776
1.2854767 55.537846 355.03778
-2.2512054 55.305012 353.23834
-1.6233826 55.172783 354.16434
0.12307739 55.217644 354.00409
0.67536926 55.059216 354.21509
1.2996521 54.984535 355.00031
1.8849182 54.969639 355.11234
3.0916595 55.28796 354.46127
3.6774292 55.272823 354.57733
-2.2487488 54.577324 353.63733
-1.6388855 54.533661 354.07999
-1.0305023 54.489826 354.52362
0.70892334 54.475452 354.51318
1.3138123 54.431168 354.96179
1.9171143 54.386871 355.41049
6.5046234 54.880638 352.39963
-2.254776 54.426868 352.03836
-1.6245728 53.979961 354.04047
-0.99533081 53.907818 354.81979
0.74243164 53.892559 354.81226
1.3280029 53.877625 354.92334
1.9015198 53.748089 355.32721
6.5326233 54.291435 352.70544
-2.2302551 53.669174 352.77994
-1.6319275 53.454601 353.66327
-0.9601593 53.326645 355.11697
0.71803284 53.395813 354.09842
1.9635925 53.252453 355.67029
6.5466461 53.732277 352.66861
-1.6391449 52.928143 353.28604
-0.9875946 52.829845 354.40515
0.75166321 52.81321 354.39755
1.3564911 52.770428 354.84634
1.9416656 52.75526 354.95938
2.5265045 52.74004 355.07339
-1.6247559 52.373154 353.24643
-0.99407959 52.303574 354.02991
-0.42169189 52.119213 354.57672
0.74668884 52.286415 354.02127
1.3162537 52.101379 354.57208
1.9201355 52.058853 355.02289
3.0653839 51.998577 355.06116
-1.6102905 51.818062 353.20685
1.8985138 51.362801 355.08545
3.0669556 51.331821 355.31552
-1.634903 51.68158 351.26129
-1.0286865 51.274513 352.93546
-1.6203003 51.12331 351.22147
-1.0354156 50.744625 352.55701
-0.41967773 50.509747 353.78552
0.13169861 50.35273 353.99768
0.75396729 50.479473 354.00659
1.3402863 50.464134 354.11957
1.8900299 50.306519 354.33472
3.1338043 50.559937 354.36151
-1.6542664 50.254097 351.72864
-1.0208893 50.188038 352.51727
1.9043274 49.751671 354.29611
-1.0063629 49.631355 352.47763
-0.3964386 49.59127 352.92749
-1.0131683 49.099186 352.09698
-0.41769409 48.893429 352.9899
0.20639038 49.019688 352.99881
1.3818512 48.988964 353.22278
1.9508972 48.807407 353.77881
-1.0414124 48.589951 351.3754
5.4686127 48.640553 352.04388
-1.0268402 48.031525 351.33459
1.9979401 47.860184 353.25937
-1.0337067 47.495918 350.95276
-0.41584778 47.270313 352.19089
1.3504791 47.223499 352.5278
1.9940643 47.326233 352.88062
6.6750183 47.622192 351.56787
-0.99729919 46.914021 351.25592
-0.41635132 46.549641 352.59436
0.212677 46.48975 353.38446
2.0271454 46.746334 353.18292
4.8301544 46.846901 351.02817
5.4581757 46.973328 351.04498
6.0087128 46.814381 351.27106
6.650589 46.918018 351.63501
-1.0258484 46.39941 350.53
-0.38070679 45.971092 352.89474
0.22729492 45.933712 353.34579
4.8445587 46.285503 350.99017
5.4340057 46.269211 351.11115
6.0230408 46.252869 351.23306
6.6260376 46.214306 351.70114
-1.0065155 45.716911 351.01569
-0.40817261 45.456841 352.17484
0.24194336 45.377724 353.30615
4.8427734 45.745594 350.60605
6.0373535 45.69128 351.19504
6.6403656 45.653145 351.66422
-0.39349365 44.899261 352.13507
0.25656128 44.821583 353.26749
2.5102234 44.860828 352.02353
4.8572235 45.18346 350.56702
5.4628754 45.145927 351.03513
6.0517883 45.129574 351.15707
6.6547394 45.092052 351.62619
-0.39984131 44.361557 351.75516
0.23049927 44.305504 352.54846
4.8879852 44.600578 350.87518
5.4772949 44.584225 350.99716
6.0661926 44.567783 351.11905
6.6691284 44.530743 351.58826
-0.39849854 43.903076 351.14941
0.22477722 43.767696 352.16846
2.5393372 43.742653 351.94583
4.9024811 44.03878 350.83719
5.4917908 44.022327 350.95914
