ply
format ascii 1.0
comment PCL generated
element vertex 1581
property float x
property float y
property float z
element camera 0
property float view_px
property float view_py
property float view_pz
property float x_axisx
property float x_axisy
property float x_axisz
property float y_axisx
property float y_axisy
property float y_axisz
property float z_axisx
property float z_axisy
property float z_axisz
property float focal
property float scalex
property float scaley
property float centerx
property float centery
property int viewportx
property int viewporty
property float k1
property float k2
end_header
4.6626987 76.589439 352.15152
2.2592797 75.987236 352.7847
1.9514641 75.893288 354.56955
-0.98168695 74.954536 355.12207
-1.7699499 74.836372 355.74124
-1.8776981 74.804306 356.32886
-1.9863615 74.771973 356.91623
4.3134294 76.249596 343.25656
4.1451674 76.191971 344.45709
2.7133956 75.628143 348.02765
1.9314563 75.510498 348.66827
4.7363601 75.940002 352.11304
-1.402474 74.324242 355.71902
-1.157553 74.279655 358.0441
4.3447461 75.690315 343.2496
4.1765609 75.632622 344.45013
5.6908879 76.006989 347.40225
3.0888867 75.1129 347.99802
2.3058779 74.99601 348.6394
2.3150201 74.867386 352.77045
-0.4022333 73.998871 355.11191
-1.3753772 73.768829 355.71179
-1.2523668 73.746162 356.87396
-0.78903317 73.765137 358.02396
4.3760943 75.13102 343.24277
4.2924519 75.102051 343.84308
4.2067957 75.07296 344.44327
5.508626 75.143143 347.32437
5.0678883 75.069389 347.94888
2.6803479 74.480545 348.61041
4.3979921 74.855377 352.14883
2.6895866 74.35022 352.74539
1.8944438 74.233116 353.37604
1.6871897 74.169762 354.56433
-1.0078362 73.254913 355.68961
-1.1165601 73.222565 356.27835
-1.4475522 73.124687 358.04239
5.1006293 74.65744 343.18149
4.5645056 74.436424 343.77515
4.1327662 74.364609 344.40192
5.5390515 74.580307 347.31732
4.4009109 74.421036 347.98715
2.7096348 73.9216 348.60352
4.4196196 74.172958 351.50537
5.0284214 74.347374 352.70416
2.6163955 73.758018 353.33408
2.0618491 73.652275 354.54099
0.70734137 73.194763 355.10641
-0.29694867 72.781143 355.65195
-0.40554976 72.748672 356.24185
-1.3097006 72.601143 357.44754
5.5695686 74.017296 347.31039
4.430357 73.85939 347.98041
2.990643 73.373596 349.17178
4.7067213 73.740356 352.71527
2.6447253 73.197205 353.32693
2.4365578 73.133476 354.51764
-0.26975635 72.223984 355.64474
-0.37837246 72.191444 356.23465
-0.830441 72.118118 356.83829
-1.6250018 72.004196 357.45383
3.9149885 73.114594 343.1813
3.4861765 73.043823 343.8074
4.0033765 73.067253 344.95328
5.6000099 73.454285 347.30338
3.6179714 72.865814 349.71979
2.833734 72.564178 353.28299
1.9651078 72.350136 353.88742
-0.24349421 71.666595 355.63763
-0.35214078 71.634026 356.22748
-0.80419505 71.561119 356.83118
-1.5987734 71.448204 357.44672
4.2925596 72.596779 343.14703
3.5165005 72.485275 343.8006
3.947134 72.477554 345.54565
4.3699131 72.46875 347.29526
3.9310615 72.39724 347.9176
3.6473396 72.304741 349.71277
4.3000178 72.302643 352.04547
2.037678 71.70414 353.84937
-0.32488644 71.076485 356.22034
-1.5654653 70.777206 356.81354
-1.9140933 70.852692 357.45306
3.977576 71.996826 343.16772
3.54774 71.926697 343.79385
3.4621458 71.89698 344.39243
3.9774764 71.917618 345.53885
4.4003196 71.907425 347.28833
3.6131341 71.795868 347.93365
4.0250869 71.784073 349.68454
0.13194856 70.649246 353.85184
0.94888031 70.818466 355.61581
-0.64116418 70.479752 356.228
3.9044263 71.290504 343.12631
3.4746196 71.220978 343.75244
3.387943 71.19088 344.3508
3.8976197 71.194153 347.28876
3.3422983 71.110146 347.91779
3.7061536 71.18219 349.69894
2.504735 70.711525 351.45563
2.0577159 70.640266 352.06998
1.6097353 70.569016 352.68274
-0.18332273 70.053139 353.86194
-0.63141298 69.982147 354.46872
-0.27141505 69.961243 356.20618
-1.0670673 69.851112 356.8241
3.4004006 70.515396 343.71097
3.3138003 70.485229 344.30917
4.4610877 70.784485 347.27466
3.116585 70.340157 347.87039
2.1866488 70.112419 351.46826
1.7406049 70.041718 352.08197
1.2926074 69.970985 352.69412
-0.49753007 69.343414 353.24411
-0.60213351 69.311035 353.83392
-0.60420668 69.425568 354.46173
-0.81645125 69.245728 355.01248
-0.24412981 69.403511 356.19907
-0.80289805 69.1847 356.76352
3.4316854 69.956932 343.70419
3.3450701 69.926544 344.3024
2.8015037 69.742004 347.88651
2.1094878 69.405006 351.42365
1.6634426 69.334816 352.0372
1.215337 69.26458 352.64929
0.76828361 69.194511 353.25998
-0.67947239 68.607826 353.7887
-0.89380491 68.542244 354.96692
-0.42792988 68.550507 356.11349
4.2382326 69.504578 343.04376
3.8082867 69.436249 343.67035
3.3763561 69.367821 344.29565
3.8889229 69.382492 345.44052
4.1483703 69.438782 347.22824
2.1420028 69.107063 347.92557
2.0323107 68.697884 351.37891
1.5862186 68.628204 351.99243
0.79559886 68.521286 352.62296
0.34750664 68.451584 353.23285
-0.65228212 68.051582 353.78177
-1.5476929 67.912689 354.99219
4.5302982 68.952026 343.60916
3.752089 68.846451 344.26233
3.9202724 68.822449 345.43375
1.6187557 68.218933 347.86911
1.1807488 68.150597 348.48599
1.6145142 68.069084 351.98547
0.82392269 67.963173 352.61603
-0.072359741 67.710709 353.20544
-0.62403882 67.495255 353.77475
4.907104 68.42865 343.5752
4.4741502 68.361 344.20236
4.0401888 68.293106 344.82822
3.9505849 68.262207 345.42703
3.8600957 68.231171 346.02567
1.6480243 67.661369 347.86237
0.8684637 67.557289 348.50159
2.0899572 67.578598 351.36502
1.6428559 67.509895 351.97858
1.1947167 67.44104 352.59067
-0.14875218 67.007317 353.16025
-0.5969243 66.938835 353.76788
-0.7035408 66.905861 354.35712
-0.81227815 66.872795 354.94595
4.5055008 67.800301 344.19568
4.0715847 67.732933 344.82156
3.9819963 67.701904 345.42035
3.8914771 67.670769 346.01898
1.6782852 67.10363 347.85565
0.55613077 66.964859 348.51718
2.3622108 67.022339 351.93304
1.2229966 66.882133 352.58383
0.11441794 66.452644 353.72598
-0.67633414 66.349182 354.35019
-0.7850256 66.316032 354.93903
4.8833475 67.275589 344.16217
4.1029348 67.172615 344.81482
3.6668808 67.105606 345.43918
2.0520232 66.581276 347.82571
0.74398643 66.33506 348.47095
0.96162957 66.1558 348.98489
1.9424608 66.393791 352.53949
0.54780209 66.048546 353.14188
0.14275606 65.894936 353.71899
-0.30651653 65.827187 354.32635
4.8272023 66.683235 344.75562
3.5917308 66.399811 345.39636
3.8606694 66.51815 346.60397
2.4248486 66.057549 347.7959
0.99086678 65.598671 348.97818
2.9786873 66.229683 351.97693
2.3164358 65.868507 352.51392
0.62024522 65.404564 353.10321
0.16996515 65.337212 353.71216
0.062357884 65.303955 354.30246
5.2061219 66.156654 344.7226
3.5174956 65.694389 345.35345
2.4551888 65.49852 347.78915
2.6924121 65.342216 352.48804
0.19827327 64.779289 353.70526
4.8900471 65.559853 344.74234
3.5478227 65.134537 345.3468
3.481365 65.330139 347.21271
1.7449198 64.75415 348.39093
1.3918779 64.517403 348.9425
0.91386938 64.287933 353.66287
1.9599358 64.546989 356.63773
4.8681583 64.925301 344.71756
3.5791721 64.574524 345.34024
3.645133 64.51236 347.10812
3.3908961 64.554955 347.74606
1.7648139 63.992252 348.91348
2.9451969 64.305794 353.08301
1.9883749 63.985077 356.63071
0.83359087 63.851604 357.2659
4.737709 64.145508 344.65631
3.6095147 64.014519 345.33368
3.7699926 63.983604 346.50385
3.675508 63.951427 347.1015
3.2343216 63.886246 347.72241
3.7161088 63.723164 353.00674
2.2379155 63.490421 355.43808
2.126328 63.456638 356.03116
0.30292907 62.966908 357.19238
4.1675191 63.550488 344.10431
3.2962682 63.421844 345.35297
3.8004441 63.422649 346.49725
3.3602483 63.358025 347.11905
2.4689054 63.11655 347.72534
2.0276556 63.051975 348.3436
3.3959396 63.127293 353.01868
1.7929355 62.819138 353.64624
2.1587255 62.782379 355.39084
1.700431 62.716518 355.9993
0.78863734 62.472927 356.58084
4.1989007 62.989792 344.09778
3.4181814 62.893974 344.7493
3.3266411 62.862019 345.34653
3.2341242 62.829952 345.94351
3.7362895 62.829357 347.08835
2.3935061 62.412811 347.68134
1.9523007 62.348721 348.29935
4.4404335 62.841087 351.8194
4.2314644 62.774719 353.01422
3.3168378 62.530807 353.60742
2.0784822 62.074608 355.34357
1.2743932 61.977985 355.96777
0.81597435 61.912666 356.57391
4.2312899 62.429142 344.09125
3.4495456 62.334167 344.74295
3.3580666 62.302116 345.34012
3.2644362 62.269989 345.9371
3.4210129 62.236752 347.10605
2.3252888 61.820797 348.26971
4.3613248 62.131035 351.77332
4.1513958 62.064133 352.96759
3.6951311 61.999096 353.58249
1.4133346 61.45108 355.36945
1.3017621 61.417133 355.96088
1.6526848 61.37598 357.70474
4.2093811 61.796295 344.0665
3.4765389 61.570896 345.26703
3.1891901 61.56604 345.89349
3.194978 61.473595 347.05746
2.7978899 61.324501 347.64447
2.3556759 61.261265 348.26315
1.9123167 61.198002 348.8804
3.0962794 61.365112 350.61603
3.7236056 61.435394 353.57571
2.7295113 61.232922 354.18561
2.3525198 61.130104 354.77728
1.7875669 60.920536 355.34616
0.98332036 60.825928 355.96973
1.6801331 60.813831 357.69781
1.3233622 60.894623 358.34384
3.5520067 60.925156 345.22717
3.1137595 60.862568 345.84995
3.2694559 60.827316 347.01773
2.8272412 60.764427 347.638
2.3859415 60.701622 348.25665
1.9426576 60.638775 348.8739
3.0190539 60.658905 350.57047
4.2084537 60.935604 352.95413
3.7521415 60.871471 353.56897
2.8383269 60.63208 354.15961
2.2733123 60.422962 354.73004
1.8149681 60.358982 355.33939
1.0106887 60.265369 355.96295
1.3596786 60.221764 357.70505
0.89623618 60.1576 358.30902
3.2387083 60.335182 345.24698
3.1451552 60.302589 345.84344
2.9551499 60.237144 347.03574
2.8575842 60.204288 347.63147
2.4153068 60.14185 348.25012
4.2379675 60.371132 352.94742
3.7806468 60.307468 353.56223
2.1891892 59.826656 355.31613
1.3839164 59.733875 355.94043
1.0559485 59.410507 356.44891
0.78254259 59.453243 357.07669
0.50718367 59.49575 357.70337
4.6762514 60.033138 343.98007
4.0520558 59.866043 344.59021
3.6147842 59.804367 345.21426
3.1765354 59.742577 345.83707
2.9854929 59.676926 347.0293
2.8879578 59.643951 347.62503
2.4456489 59.582001 348.24371
2.5903785 59.544529 349.41052
2.3862765 59.477699 350.59943
4.2665353 59.806629 352.94073
3.8091984 59.743359 353.55554
2.9746547 59.467789 354.12665
2.3292315 59.298603 354.71646
2.2176754 59.264439 355.30939
0.62287837 58.786789 357.04709
4.1748862 59.337608 343.98569
4.0834079 59.305042 344.58389
3.6462119 59.243771 345.20792
3.2068934 59.182449 345.83069
3.015882 59.116596 347.02289
2.9183319 59.083523 347.61856
2.8198051 59.050434 348.21405
2.6197464 58.983845 349.40405
2.518214 58.950451 349.99863
2.4147131 58.916885 350.59293
3.8376892 59.17915 353.54886
2.4671836 58.770481 354.11664
2.2450783 58.70208 355.30261
1.7857081 58.639492 355.91101
1.3241705 58.576839 356.51785
0.65023106 58.226334 357.04022
4.6597614 58.94775 343.98904
4.114852 58.743832 344.57745
3.6775477 58.683071 345.20163
3.2382593 58.622154 345.82437
3.7368448 58.612152 346.96738
3.6403174 58.579006 347.56415
2.8502102 58.489803 348.20758
2.7506616 58.456478 348.80276
2.6491141 58.423073 349.39761
2.440907 58.246567 349.95297
4.1071844 58.388115 352.84637
2.9512098 58.380383 354.13281
4.698916 58.631596 354.68149
2.6214869 58.167439 355.27921
1.6259234 57.972404 355.88214
1.2447908 57.871521 356.46973
0.67761481 57.66568 357.03339
5.1284356 58.446217 343.3555
4.2387042 58.215454 343.97311
4.1462202 58.182652 344.57114
3.7079532 58.122231 345.19528
3.768259 58.050556 346.96094
3.1258597 57.923111 348.7735
2.8496542 57.748051 352.32196
3.4353163 57.98859 354.14905
2.6489375 57.604279 355.27249
1.1655022 57.166393 356.42151
0.35995728 57.078339 357.0415
4.7063861 57.714046 343.34036
4.2701635 57.65416 343.96683
3.739397 57.561237 345.18906
3.8951328 57.522057 346.3576
3.1069596 57.434967 347.00391
3.0094864 57.401604 347.59958
3.1563582 57.361683 348.76706
2.7089643 57.30125 349.3848
2.2928276 57.166191 351.76108
3.5973613 57.163574 354.04288
3.0253811 57.067837 355.24905
1.1919414 56.605106 356.41476
0.38633314 56.51804 357.03473
4.7388387 57.152287 343.33411
4.3015628 57.092758 343.96063
3.664011 56.858295 345.14493
3.1179197 56.657021 345.72964
2.8636649 56.700806 346.36774
2.9331081 56.698727 347.55472
3.4248388 56.683929 348.69858
2.8265412 56.567703 349.31119
2.4223039 56.421616 349.89426
2.3188195 56.387646 350.48804
2.2142057 56.353661 351.08148
2.2143917 56.4622 351.71466
1.8926293 56.251106 352.86008
3.9759285 56.62574 354.01816
2.5914297 56.443176 355.85205
1.5663688 56.069557 356.39227
0.75779891 55.983231 357.01306
5.1180844 56.616543 343.29953
3.5886545 56.155739 345.10077
3.1482477 56.096672 345.72339
2.7089083 56.037685 346.34442
2.8567295 55.996063 347.50977
3.5929806 55.97139 349.22562
2.4526331 55.860779 349.88782
2.3481264 55.826778 350.48157
2.2426131 55.792648 351.07504
2.137084 55.758514 351.66824
2.02948 55.72422 352.26105
1.2320033 55.639336 352.89157
3.3169327 55.931095 355.81293
1.5938169 55.507519 356.38556
0.78518361 55.422199 357.00638
5.1505842 56.053986 343.29337
4.3654137 55.969604 343.94833
3.6200063 55.594833 345.09448
3.1796443 55.53627 345.71716
2.395293 55.452633 346.36359
2.5431912 55.410431 347.52771
3.2764404 55.383881 349.24207
2.3775406 55.2658 350.47519
2.2719967 55.231567 351.06863
1.2603781 55.079121 352.88507
2.9954517 55.341263 355.82257
1.6212348 54.945347 356.37885
1.0507543 54.743099 356.94226
5.528873 55.516289 343.25885
4.4850807 55.236061 343.87326
4.0898137 55.091946 344.46426
3.6514194 55.033833 345.08829
3.2110257 54.97567 345.71088
2.426672 54.893124 346.35736
2.9175706 54.874584 347.49719
2.1291568 54.791889 348.13943
2.7529757 54.729118 350.4472
2.3014112 54.670391 351.06213
2.0873635 54.601719 352.24808
1.9778371 54.567249 352.84052
1.768806 54.324131 356.34308
4.2147017 54.56398 343.8606
4.1212277 54.530445 344.45813
3.682894 54.472744 345.08212
3.241431 54.415047 345.70477
2.8009593 54.357407 346.32584
2.9479306 54.313755 347.49091
2.5034146 54.255924 348.10956
2.0579526 54.197998 348.72665
2.4363546 54.143337 350.4624
2.3308258 54.109116 351.05582
2.3703017 53.868244 356.33371
4.247139 54.002422 343.8544
4.1536498 53.968792 344.452
3.7142615 53.911545 345.07596
3.2727828 53.854229 345.69861
2.7255073 53.65657 346.28094
2.8715038 53.611877 347.44553
2.4269412 53.554569 348.064
1.9814014 53.497238 348.68106
2.5702755 53.616276 349.8624
2.3589373 53.440876 350.41583
2.3817458 53.467514 352.80832
1.2867885 53.259293 353.41641
4.6245146 53.46389 343.82025
4.1851406 53.407082 344.44583
3.7456453 53.350243 345.06989
2.350558 52.853607 348.0184
1.9049867 52.796768 348.63531
2.7572799 52.928078 352.78253
0.93810964 52.4855 353.95847
4.5625329 52.867836 344.41226
3.7770896 52.788837 345.06375
3.335578 52.732433 345.68637
2.3808558 52.293259 348.01215
1.9352984 52.236927 348.62909
1.8317995 52.202499 349.2218
2.4177513 52.318306 350.40314
2.4386272 52.342869 352.7955
1.3106207 51.94693 353.93365
5.8525529 52.653439 344.40057
4.1535215 52.249317 345.03094
5.4461441 52.303852 345.52203
3.6145532 52.159222 346.25031
3.2572496 51.93087 346.80212
2.0671721 51.711243 348.03
1.9646647 51.676857 348.62289
1.8611505 51.642418 349.21555
2.8142099 51.802231 352.76974
5.0181317 52.183048 353.33234
4.3738832 51.754951 343.83029
5.4776573 51.739464 345.51587
3.9910791 51.618893 346.21854
1.9950533 51.116814 348.61673
1.8915545 51.082279 349.20935
1.7870181 51.047714 349.80167
2.8437507 51.239155 352.76334
4.7524085 51.213947 343.79617
4.2164149 51.124695 345.01889
4.2701364 51.043163 346.78363
3.8225794 50.987843 347.40506
3.7220721 50.953457 348.00089
2.0253963 50.556553 348.61053
1.9209365 50.521988 349.20319
1.816385 50.48732 349.79547
3.2203751 50.696674 352.73746
4.5975595 50.551418 343.77393
3.7845185 50.297546 344.36603
3.4499004 50.382141 345.02805
4.5398173 50.360497 346.7124
3.7462153 50.285286 347.35928
3.6447163 50.250774 347.95486
3.5987158 50.047516 352.07541
3.2930169 50.045837 352.69669
5.3576307 50.297234 357.43616
4.1610618 49.755753 344.33224
3.3743706 49.681911 344.98328
4.1163716 49.637535 346.69211
3.6697583 49.583248 347.31335
2.8780134 49.509476 347.95718
0.50358337 49.081535 348.6123
0.39906162 49.046829 349.20215
0.29351777 49.01199 349.79172
4.582891 49.315037 353.73285
5.9765549 49.819454 356.22055
5.5048404 49.76384 356.83344
4.6778455 49.688168 357.45981
4.5386305 49.212799 344.29846
3.4068217 49.12075 344.97726
3.4555283 49.036221 346.73703
1.3198444 48.595364 347.96793
0.87508774 48.542034 348.5827
0.42837781 48.488632 349.19608
0.32281864 48.4538 349.78561
0.2152454 48.418888 350.37482
3.5437133 48.989006 353.293
6.0052252 49.249969 356.21393
5.5325494 49.194798 356.82681
4.2239704 48.631241 344.32047
3.4382203 48.559441 344.97137
3.4869587 48.474216 346.73102
1.3501544 48.036228 347.96188
0.90545809 47.983276 348.57666
0.45867062 47.930397 349.19003
0.35208926 47.895515 349.77954
6.0330124 48.68021 356.20734
5.5602736 48.625557 356.82025
4.1599464 48.034344 344.9111
3.5174899 47.912079 346.72507
0.85482466 47.361927 347.9613
0.48749858 47.269493 348.55396
0.38193989 47.234463 349.14355
0.27541992 47.199387 349.73282
0.1678623 47.164276 350.32181
5.9509602 47.968929 356.15695
5.123867 47.896477 356.78574
5.8933892 47.854939 344.27548
4.1914554 47.471733 344.9053
3.7478135 47.419331 345.52832
3.8940868 47.367332 346.69366
0.41178918 46.574017 348.50763
0.30624595 46.538868 349.09702
4.6882496 47.16922 356.7514
5.7081299 47.01268 344.1907
5.0242691 47.081715 344.88419
3.779321 46.857121 345.52249
3.9256115 46.804417 346.68768
0.33237565 46.184853 350.35059
4.7169323 46.601326 356.74475
4.9478588 46.379436 344.83887
4.5032544 46.327877 345.46317
4.0565128 46.276348 346.08609
3.9560528 46.241375 346.68185
1.3645104 45.661457 347.89764
0.81269276 45.473415 348.47177
0.36583945 45.422531 349.08487
0.14973333 45.351883 350.26263
0.22886603 45.382977 351.45255
4.9871559 45.909367 356.67776
4.9793859 45.815445 344.83304
4.8819475 45.780537 345.43045
4.435236 45.729404 346.05392
3.9876082 45.678261 346.67593
0.84300196 44.914669 348.46579
0.52039284 44.808502 350.23441
0.30128115 44.737621 351.41177
4.9135208 45.216328 345.42462
4.813138 45.181126 346.02176
0.87232006 44.355679 348.45984
1.0006254 44.299549 349.61636
0.89206177 44.264084 350.20609
4.9450641 44.652031 345.41888
4.7442064 44.581608 346.61279
2.59268 44.162643 347.84717
0.90262985 43.796734 348.45395
1.0300211 43.739948 349.61035
0.92144245 43.704391 350.2001
0.81191772 43.668785 350.78946
0.35895681 43.619225 351.39957
4.8676448 43.950439 345.37277
4.6592145 43.777996 345.92917
4.6668186 43.879822 346.56619
3.07095 43.650433 347.22318
1.3798428 43.286705 347.83353
0.59156424 43.223927 348.47195
0.484038 43.188507 349.06116
0.95079291 43.1446 350.19406
0.84026122 43.108963 350.78342
0.72966838 43.073315 351.37247
5.4868584 43.276924 345.27197
5.0391049 43.227612 345.89651
4.2429724 43.164642 346.54572
3.1023047 43.088337 347.21738
1.4102004 42.726944 347.8277
0.51479894 42.529686 348.42511
0.40826473 42.494125 349.01407
0.06538251 42.58112 349.66678
0.75813425 42.513309 351.36639
5.4180222 42.676079 345.86389
4.2744684 42.60083 346.53992
2.7598217 42.33593 347.17389
1.4406035 42.167202 347.82181
-0.24582534 42.010246 349.68365
0.45582038 41.864914 356.09521
5.0429869 41.975399 346.44534
2.604744 41.679459 347.14926
1.4709616 41.607243 347.8161
1.0229417 41.559483 348.4306
0.5729683 41.511768 349.04361
0.69738925 41.452503 350.19852
-0.11664265 41.105751 356.05298
2.2917116 41.106224 347.16901
1.3942134 40.912125 347.7691
0.94625336 40.864948 348.38348
0.96457779 40.669468 349.49713
0.9621138 40.768925 350.1282
-0.19299257 40.507813 355.44751
-0.88158977 40.387123 356.03632
3.9126158 40.761589 346.50769
2.6666427 40.556293 347.1377
1.3184562 40.217434 347.72208
0.87046456 40.170685 348.3364
0.99499631 40.109718 349.49118
2.8147085 40.405758 354.82941
-0.49717432 39.738667 355.38425
3.1460023 40.041134 346.51331
2.6970198 39.994537 347.13199
2.2480674 39.948074 347.74933
3.3093674 39.88763 354.21338
-1.1531155 39.1591 355.41293
4.7777147 39.790756 346.48517
2.7285268 39.43272 347.12634
1.8288386 39.242119 347.72711
1.2717386 39.061707 348.30054
1.0546901 38.989674 349.47943
0.70869118 39.078526 350.13315
2.9893038 39.31208 354.22598
0.12691604 38.799828 354.8121
-1.1258429 38.600338 355.4068
4.1273384 39.008293 346.45694
3.1035089 38.88039 347.09515
1.6446122 38.510845 348.27026
1.1935346 38.46558 348.88437
1.0840111 38.429482 349.47363
0.97349536 38.393448 350.06262
2.8749835 38.598839 353.57642
2.2939861 38.550114 354.19257
-0.29352498 38.095287 354.78027
-1.0985086 38.04137 355.40054
4.2761121 38.381424 346.4173
3.4795928 38.326908 347.06375
3.0285316 38.281738 347.68228
2.0175948 37.958931 348.23993
1.5665625 37.914043 348.85461
1.1134084 37.869194 349.4678
0.52994061 38.08374 350.18616
2.6000135 37.937912 353.55423
0.14827527 37.633621 354.78528
-1.254882 37.390167 355.37091
3.9610808 37.808483 346.43817
3.5110874 37.763702 347.05811
2.4991412 37.442093 347.61804
2.0480473 37.397667 348.23422
1.596907 37.353271 348.84885
1.1437675 37.308842 349.46204
0.79572231 37.398308 350.11569
2.2818503 37.365437 353.5676
0.10492064 36.982956 354.74969
-0.70212728 36.931042 355.37073
3.4307301 36.968475 346.37552
2.980644 36.924316 346.99475
1.626352 36.79229 348.84311
1.1731806 36.748341 349.45627
2.3104165 36.801609 353.56152
1.1536319 36.742268 354.20776
-0.21044594 36.414917 354.76184
2.7729447 36.390755 346.42297
1.9811614 36.339931 347.06656
1.6566972 36.231243 348.8374
1.2035094 36.18779 349.45062
2.6856246 36.244938 353.53592
1.1811727 36.179901 354.20172
-0.06375435 35.791187 354.72446
2.8044064 35.828735 346.41742
2.0116136 35.778885 347.06104
2.2562261 35.746925 348.81683
1.2329689 35.627094 349.44485
3.5355263 35.632229 352.26257
1.1147597 35.385834 353.52011
0.99623358 35.349407 354.10751
0.18708949 35.300339 354.73145
3.1805255 35.27298 346.38531
2.0420508 35.217709 347.05551
1.5918525 35.175137 347.67123
1.606111 35.072426 349.41577
1.4889746 34.829716 353.49442
1.0236208 34.787342 354.10153
0.21548147 34.739304 354.72537
3.2120042 34.710155 346.37979
2.3089209 34.529594 346.98212
1.8577912 34.487461 347.59814
1.1716862 34.261581 353.50809
0.7083295 34.219883 354.11444
0.24291228 34.178242 354.71936
3.5872424 34.152561 346.34775
2.1247382 33.799137 347.52499
2.5867643 33.928207 349.92444
3.0513833 33.865211 351.06091
2.8194611 33.792011 352.24265
1.6644907 33.740715 352.89417
1.2001115 33.699348 353.50214
0.735762 33.6581 354.10846
2.6172726 33.819981 342.3363
3.6187687 33.589043 346.34232
3.1665545 33.547802 346.96136
2.9620826 33.36953 349.89545
2.9654546 33.264236 351.64606
0.76418644 33.096279 354.10251
2.4372323 32.997086 342.25037
3.6502492 33.02552 346.33685
2.7450063 32.848434 346.93958
2.1855385 32.675823 347.51395
1.7342978 32.635319 348.12906
2.0686514 32.830128 349.36975
1.3524376 32.471127 352.25595
0.58160752 32.471142 352.89896
1.1364989 32.53809 354.07745
0.85505235 32.302555 354.59683
2.909766 32.477131 341.62253
2.1288953 32.433121 342.27576
1.6877267 32.392788 342.89655
2.2170455 32.114002 347.50842
1.7637436 32.07391 348.12357
0.96516347 31.817478 352.24167
0.50369447 31.777847 352.849
1.1738031 31.677019 354.54938
2.3293905 31.773891 341.02393
1.7074355 31.646364 341.62964
1.7142169 31.739794 342.2605
1.4223745 31.744343 342.88403
3.7342184 31.600567 346.80704
2.2474689 31.552143 347.50296
2.1379929 31.51543 348.09305
0.6507045 31.253309 352.25681
0.18921877 31.214184 352.86349
0.85637009 31.111877 354.56232
2.1779852 31.126604 341.0025
1.7397294 31.087269 341.62463
1.6402938 31.050463 342.21484
1.2010298 31.011341 342.83459
2.6217515 30.992472 347.47174
1.9308808 31.082096 348.15509
2.519742 30.847511 349.8089
1.1405525 30.730839 351.64276
0.67908156 30.692179 352.25101
0.21756409 30.653564 352.85767
2.2112877 30.567057 340.99753
1.7730765 30.528124 341.61963
1.6726341 30.491272 342.20972
1.5722371 30.454441 342.79959
2.5428233 30.392982 348.05685
1.1700145 30.169029 351.63705
0.58897865 30.094242 352.83142
1.7049897 29.931986 342.2048
2.9172013 29.831511 348.02615
1.1994766 29.607243 351.63129
0.62965047 29.438545 352.19501
1.8378184 29.409544 341.6098
1.7372999 29.372499 342.19974
2.9486961 29.268192 348.02063
3.1430895 29.245836 349.78973
2.2110293 28.850447 341.57355
1.6633592 28.684172 342.15363
1.5618947 28.64711 342.74313
3.3251541 28.704895 347.9899
3.3317733 28.594055 349.73904
1.6013514 28.483204 351.59824
3.3372402 28.066538 344.96695
3.3557045 28.140835 347.9845
1.732981 27.656553 342.77472
3.3687351 27.50341 344.96179
3.3862407 27.57658 347.9791
3.0017474 27.552731 349.78879
3.8774519 27.451725 352.68262
1.9888546 27.245008 353.3078
2.4471781 27.094318 342.70938
2.5783074 26.927195 343.22781
3.400245 26.940287 344.95657
3.0717807 27.013597 347.99908
3.0764346 26.901131 349.74606
3.648716 26.748371 352.0397
2.018398 26.681026 353.30185
3.6933317 26.613541 342.6308
3.088819 26.378851 344.97983
3.3390186 26.318205 347.92447
2.7721462 26.153439 348.49637
2.9976695 26.206793 349.69601
1.0513951 26.050947 350.35754
0.93387681 26.013988 350.94403
0.81536657 25.977087 351.53024
2.2051146 26.028738 353.25211
2.7505784 25.932571 343.2601
2.7772841 25.818312 345.00299
1.0808567 25.489351 350.35205
0.62120628 25.455256 350.96097
2.7741072 25.18989 341.98962
2.8058047 25.074364 343.73141
2.8077717 25.165051 344.36462
2.4657314 25.258873 345.02628
1.2277751 24.964819 349.75986
1.003852 24.799095 350.30191
0.20104463 24.768934 350.93335
2.4654512 24.631901 342.01602
2.6244369 24.437347 344.90698
3.318162 24.58787 348.49918
2.7492397 24.425245 349.06976
0.58471197 24.113192 350.27509
0.12400593 24.080177 350.88318
2.3905027 23.943848 341.96909
1.714449 24.041252 342.66235
3.3430488 23.86681 344.84454
3.2403865 23.894464 348.44958
2.6883533 23.312834 344.89685
2.9257512 23.334684 348.46939
0.98474646 22.986406 350.24075
1.7782335 22.921026 342.65286
3.3014753 22.765345 348.43893
1.3573991 22.419201 350.21176
2.5769331 22.177307 342.50964
3.332058 22.200686 348.43359
1.3868008 21.857105 350.20633
0.9250837 21.826014 350.81555
2.3103135 21.535818 342.49719
3.7048864 21.658525 346.02176
3.8222501 21.667091 347.81229
3.0154514 21.642212 348.45367
2.44719 21.48377 349.02277
1.4162947 21.294802 350.20087
0.95350802 21.264282 350.81003
2.9236941 21.100332 344.28708
3.2828319 20.973661 346.00049
2.3693478 20.792873 348.97266
2.117099 20.59911 351.88684
2.868973 20.533813 343.09326
3.424794 20.4475 345.40509
3.3143587 20.40974 345.99539
3.4178562 20.625853 346.67371
3.8845327 20.536308 347.80185
3.769062 20.498726 348.39255
3.4563365 19.883474 345.40012
3.3458557 19.845808 345.99042
3.2334368 19.808071 346.58035
3.9151027 19.970739 347.79675
3.3448997 19.814157 348.36777
2.7746499 19.657824 348.93716
2.7645042 19.537285 350.67792
1.4864947 19.487665 351.91962
3.0192299 19.411678 344.27255
3.4878793 19.319443 345.39517
3.3774443 19.281687 345.98535
3.2650409 19.243946 346.57529
3.2669981 19.122473 348.31754
2.805186 19.093668 348.93182
2.4476922 18.981371 350.69574
1.9818342 18.952898 351.30573
1.5139762 18.924486 351.91415
4.0845098 18.822136 344.17947
3.4127758 18.541681 344.71176
3.4079955 18.717512 345.98041
3.2955613 18.679783 346.57022
3.2975352 18.557707 348.31232
2.477267 18.417068 350.69031
2.0113924 18.389093 351.3002
1.5434265 18.361279 351.9086
3.4452794 17.97788 344.70688
3.3270588 18.115551 346.56528
3.328088 17.992842 348.30719
2.8652971 17.964996 348.92133
2.5067961 17.852768 350.68488
2.0398521 17.825258 351.29477
4.1486969 17.692617 344.16992
3.471128 17.588856 345.97049
3.3576567 17.551085 346.56024
3.3586714 17.427979 348.30197
2.8948565 17.400595 348.91611
2.536356 17.288265 350.67947
2.0694566 17.26136 351.28922
4.071754 17.00263 344.12115
3.6169901 16.975079 344.74127
3.3941066 16.899286 345.92108
3.2806509 16.861427 346.51056
3.3892703 16.862911 348.29681
2.9253933 16.836134 348.91092
2.5659161 16.723776 350.67407
1.6449888 16.582695 351.26031
3.9957249 16.31299 344.07239
3.5410209 16.285936 344.69226
3.3171308 16.209921 345.87158
3.2884166 16.136215 350.6218
4.0283217 15.748302 344.0676
3.5725031 15.721812 344.6875
4.039506 15.622191 345.81033
4.1443238 15.708993 348.23495
2.2936184 15.730373 348.95053
3.6041074 15.157575 344.68268
3.7256501 15.06916 345.83359
3.9857109 15.063438 348.20792
3.3325846 14.958944 348.80075
2.4374352 14.779672 350.56534
3.7470615 14.631432 344.08801
3.6356354 14.593244 344.67798
3.4107842 14.517094 345.85684
3.6399245 14.339578 348.15909
3.5214784 14.301819 348.74792
3.9368515 13.975781 344.03375
3.668232 14.028855 344.67316
3.5557988 13.990726 345.26273
3.442328 13.952662 345.85202
3.5511019 13.736217 348.74268
3.587358 13.426193 345.25793
3.4739175 13.388133 345.84717
4.0476918 13.194242 348.12262
3.2361727 13.184718 348.76294
2.648591 13.123645 349.96259
3.6189632 12.861559 345.25317
3.5045156 12.823458 345.84232
4.0783391 12.628077 348.11752
3.2657192 12.619512 348.75778
2.6772056 12.558997 349.95731
4.0380821 12.194771 345.17984
3.4274139 12.135599 345.79233
3.8876121 12.029312 346.91455
4.1089416 12.061709 348.11234
3.6419573 12.039081 348.72714
3.0533061 11.978945 349.92764
4.1558213 11.455179 345.09552
4.1396198 11.495345 348.10724
3.6725585 11.473217 348.72205
3.4296377 11.397787 349.89804
4.0585275 11.020927 346.95053
4.1702676 10.928782 348.10214
3.702168 10.907208 348.71689
3.5816917 10.869485 349.30502
3.1125216 10.848239 349.91711
4.1047268 10.285807 345.67548
3.9804666 10.332148 346.89966
4.2008858 10.362216 348.09708
3.7327535 10.341247 348.71176
3.6112859 10.303482 349.29984
2.6877782 10.176735 349.88959
4.7131424 9.6471786 346.20349
3.6409564 9.7373791 349.29465
4.2612066 9.2288723 348.08707
3.7930567 9.2089376 348.70154
3.6705816 9.1711931 349.28952
4.3857126 8.619379 346.2619
4.0733533 8.634222 346.88495
4.182169 8.5397711 348.03543
3.7140028 8.5203962 348.64984
3.245774 8.5011625 349.2626
4.689682 7.9082584 346.77869
4.1041226 7.8510695 347.98386
3.6359243 7.8322511 348.59802
3.1676636 7.8135805 349.21066
4.601932 7.3030396 347.36313
4.1347098 7.2845683 347.9787
3.6655335 7.2662635 348.59299
3.1972718 7.2481441 349.20551
4.98139 6.7157669 347.33087
4.1653728 6.7180009 347.97372
3.6961806 6.7002478 348.58786
3.2268801 6.6826396 349.20032
4.6632924 6.1687102 347.35321
4.1950302 6.1513085 347.96872
3.7257445 6.1341186 348.58276
3.2564731 6.1170707 349.19522
4.6940188 5.6014333 347.34827
4.2257547 5.5845938 347.96371
3.7554154 5.5679135 348.57773
3.2861273 5.5514255 349.19009
4.7246842 5.0340943 347.34335
4.2553663 5.0177622 347.95874
3.7860477 5.0016828 348.57269
5.1042094 4.444387 347.31107
4.2860308 4.4509163 347.95377
3.8156884 4.435358 348.56769
4.945447 3.8038311 347.28391
3.7365074 3.7487843 348.51538
3.1582718 3.6138072 349.07999
4.5980916 3.0916953 347.23438
4.1287541 3.0770414 347.8494
3.6583023 3.0626142 348.46295
493.55734 25.762611 201.02007
6.0616465 2.3462336 335.29489
5.923614 2.3838141 335.92438
5.1996002 2.1678061 336.48611
4.7512326 2.2450116 337.15634
4.5380335 2.0875387 337.7019
4.9482484 2.2875423 338.35983
4.5440874 2.2433441 338.96896
4.2813692 2.298583 339.61087
3.7611849 2.1412098 340.17612
3.4264491 2.0547857 340.75824
-6.3250346 -7.6475191 343.11581
-7.1881752 -7.6751018 344.32037
0.47238189 1.6726186 352.03473
0.37663496 1.8948753 352.72638
-0.073235825 1.8303795 353.30356
-0.41759336 1.5558131 353.78464
-0.34156007 1.7575803 354.46036
-0.4773021 1.7213621 355.03815
-1.01495 1.5622795 355.57172
-0.89145762 1.6131148 356.76923
-1.2557359 1.5304317 357.32883
-2.0817578 1.5449786 357.9375
-4.1079779 -7.2296438 331.79114
-4.7132125 -7.3051171 332.38712
-4.8186631 -7.3499675 332.95758
-4.7863007 -7.2929831 333.58356
-4.8938432 -7.3375311 334.15381
-4.8635263 -7.2801313 334.78003
-5.7233653 -7.3697877 335.38034
-5.8348613 -7.413867 335.94907
5.5094867 1.7397797 343.7316
5.0536556 1.5988867 344.29553
5.3855724 1.7818463 344.9574
5.1592965 1.6240213 345.50067
5.039906 1.5856354 346.08972
3.6227176 1.3266439 349.03366
3.2580478 1.4333212 349.69257
2.675668 1.3016646 350.25406
-9.7932587 -8.0585632 348.04755
-11.204208 -8.2870169 353.16052
1.8447183 107.59473 355.23187
1.7350223 106.90271 355.32224
1.763423 106.348 355.29608
2.5143592 106.26564 353.65228
2.259459 105.95242 354.76584
2.8765829 106.04765 352.42236
2.1693153 105.49286 353.99734
2.0534265 105.31709 354.99246
2.0779989 105.03229 353.22769
1.872968 104.69431 354.27298
2.5502779 104.91856 354.46127
2.5757041 104.65814 355.25238
2.3414536 104.55332 352.9462
2.2256382 104.37938 353.94568
2.747179 104.01681 355.02243
2.1350405 103.9179 353.17526
3.1673274 104.09426 351.27975
2.0246866 103.22683 353.26645
2.0050952 102.99827 354.12695
2.3344922 102.75115 355.47552
2.8685014 103.29242 351.55957
2.4265542 102.88021 352.86826
1.8950895 102.30825 354.21719
2.1288335 102.1189 355.70142
2.5703857 102.4936 351.83893
2.4551756 102.32249 352.84213
2.3907793 101.63968 355.42401
2.3638363 101.85808 352.06934
2.3918312 101.60255 352.86475
2.5113635 101.50934 353.60953
2.4185877 101.08389 355.39862
2.3925033 101.3004 352.04318
2.0949736 100.80694 353.14145
2.2132525 100.71467 353.88647
2.3310905 100.62144 354.6297
2.4212184 100.74168 352.01703
1.8893906 100.17551 353.37024
2.2418408 100.15797 353.86038
2.1252451 99.991112 354.85699
2.3578916 100.02074 352.03952
2.1521676 99.692535 353.08914
2.2704468 99.600273 353.83423
2.1808023 99.135651 353.06299
2.6499782 99.024864 354.29941
2.02931 99.174919 350.70032
3.0987959 99.120895 352.17258
2.3523602 98.234322 354.57446
1.5155077 98.31028 350.28265
1.9660439 98.454147 350.72293
2.3231189 98.436157 351.21329
2.5869308 98.256126 351.75262
2.908422 98.404907 352.35007
2.3556943 97.929802 353.75674
1.9027467 97.733704 350.74548
1.792382 97.571968 351.74857
2.1468337 97.553467 352.23917
2.8543651 97.515961 353.2204
1.9327732 97.175018 350.71786
1.8210951 97.014061 351.7225
2.1762028 96.995506 352.21234
3.3530245 97.100159 352.6839
2.7178862 96.715691 354.21954
1.7280723 96.545227 350.94904
1.8505712 96.456139 351.69568
2.2050388 96.437302 352.18628
2.5586066 96.418327 352.67737
2.1133745 95.968231 351.41272
2.233829 95.879128 352.16025
2.5873516 95.860069 352.65134
4.1148214 95.942017 353.61786
2.048717 95.248726 351.43546
2.2947271 95.153069 352.02774
2.5226164 95.141022 352.67404
3.3885264 94.982117 354.33615
4.9694877 95.502235 353.57437
2.5730469 94.57946 351.69238
2.4584754 94.422493 352.69601
3.0414305 94.225517 354.68057
4.2007923 94.26226 353.54019
3.9251795 93.469406 352.86148
4.8564625 93.434471 351.96545
4.068552 92.82132 353.58557
3.9447153 92.665932 354.59009
5.0822263 91.273872 361.73224
4.1774011 92.912285 350.94934
4.64781 92.804611 352.19702
4.0974069 92.26152 353.55936
4.1145592 90.295799 361.79691
4.3067513 90.365906 362.49106
0.90515447 90.769844 355.1806
1.2509751 90.749023 355.67099
4.6002884 91.834595 353.02045
4.0424824 89.829948 361.03152
4.4713597 89.965042 361.48071
4.0052023 89.591187 362.75662
4.038075 92.615761 347.72717
0.72458273 90.143089 354.4606
0.28828263 89.773201 355.75058
0.72496802 89.90918 356.19348
4.9791193 91.252541 353.49008
4.0695238 89.276123 361.00702
4.1679835 89.188957 361.74857
3.7972302 88.975403 362.97742
3.5618179 91.863655 348.24136
0.72825706 89.830444 353.64536
0.43057516 89.367912 354.73346
0.31620634 89.220322 355.72556
5.4835792 90.822479 352.95093
4.1858277 89.124817 360.14896
3.86186 88.659172 361.22937
3.6311774 88.352333 362.2608
3.7289016 88.266045 362.9989
4.003654 91.326111 347.72287
0.45923343 88.814011 354.70767
0.25187597 88.510727 355.74661
0.59577537 88.48922 356.23654
1.0326303 88.624413 356.6795
4.0228758 88.254128 360.21664
3.8882143 88.105583 361.20563
3.3304288 87.581177 362.52606
3.4276941 87.495285 363.26376
3.7485378 90.504448 347.93723
3.350415 90.320175 349.2861
0.71721083 88.322311 354.43094
0.18673661 87.801346 355.7684
0.53126156 87.779686 356.25742
3.8156085 87.63755 360.43954
3.9153311 87.551949 361.18112
3.3567481 87.029388 362.50232
3.3997531 89.747536 348.29263
3.285701 89.598564 349.30862
0.51590967 87.706039 354.65683
2.0040767 87.535469 357.36203
3.8427417 87.08342 360.41504
3.6128457 86.779991 361.44885
3.3830829 86.477509 362.47858
3.4297147 89.184196 348.26584
0.22154285 86.934372 354.92963
0.24392568 86.695831 355.71695
0.58774936 86.674034 356.20663
1.938406 86.824783 357.38321
4.1037154 86.590065 360.1438
3.3118351 86.009987 361.7153
3.4602711 88.620827 348.23834
0.15643428 86.224892 354.95139
0.27184939 86.142952 355.69186
0.61565828 86.120964 356.18158
0.95852131 86.098915 356.67178
1.8719264 86.114365 357.40494
1.9799287 86.031303 358.14645
4.1309423 86.03521 360.11932
3.869704 85.682037 361.16861
3.9637666 88.183823 347.68655
3.6116533 87.974251 348.96753
4.5619059 87.99662 349.69656
0.5302121 85.649658 355.41525
0.64432973 85.567978 356.15585
0.98649156 85.545746 356.6467
1.8998981 85.560509 357.37985
2.0078995 85.477837 358.12134
4.393292 85.540482 359.8465
4.1619558 85.23996 360.88333
3.6416297 87.41111 348.94077
4.5918999 87.432693 349.6698
3.8063121 86.845802 351.30142
1.0188026 85.214828 354.8869
2.1591651 85.065834 357.1055
2.0358551 84.924355 358.09634
4.5922546 84.940247 359.60352
2.6526537 86.42868 349.04025
4.4285011 86.551247 349.74179
3.8355074 86.284203 351.27545
0.81661057 84.601189 355.11356
1.1611373 84.578972 355.604
1.5041087 84.556557 356.09573
2.1871996 84.511169 357.08038
2.0632164 84.370621 358.07199
4.3468714 84.512306 359.05313
2.6825507 85.866859 349.01355
3.8841484 85.482582 352.05048
1.1892174 84.024513 355.57898
1.5321888 84.00209 356.07059
2.2153108 83.956482 357.05533
3.9971974 83.774086 359.39105
3.1826234 85.425728 348.46509
4.0538607 84.824051 351.81445
1.6800439 83.586098 355.04974
1.5609705 83.447594 356.04492
2.2433605 83.401817 357.03024
2.9775109 84.802795 348.69934
1.7089044 83.030525 355.0239
1.5890818 82.892815 356.01993
2.2714415 82.846931 357.00528
4.32828 82.925362 358.23257
2.5556777 84.01989 349.12817
4.6341219 83.897423 351.22086
1.3658009 82.295532 355.36575
1.3369751 82.093925 356.22382
-0.25394118 81.249886 358.65854
0.7402674 81.412003 359.3475
0.75149727 81.178696 360.12985
3.5896437 82.023834 358.05573
2.3769267 83.247017 349.26453
4.1420097 83.139122 351.73578
1.343821 81.552856 355.319
0.017443363 81.038086 357.5882
-0.2260392 80.699799 358.63373
0.10983904 80.676178 359.12393
0.44472599 80.652405 359.61459
0.77938449 80.628418 360.10501
2.4068382 82.685684 349.23788
4.1337914 83.050873 350.10306
4.4077806 82.634972 351.45148
-0.32540688 80.458473 357.08908
-0.16922434 80.347931 357.75897
-0.19809145 80.149727 358.60889
-0.95705384 79.605026 360.1694
-0.53019273 79.733574 360.61322
2.9061153 82.238792 348.68945
-0.39164174 79.754204 357.11029
-0.28002286 79.676888 357.84735
-0.71674252 79.340302 359.12018
-0.92930961 79.057152 360.14465
-0.59697014 79.032936 360.63422
2.9360752 81.67627 348.66284
4.8254695 81.702934 350.12399
-0.040624212 79.409729 356.79004
-0.63911343 78.970276 358.21521
-0.87252212 78.704811 359.27548
-0.90219021 78.509125 360.12067
2.4975195 81.001015 349.15747
5.108397 80.959496 350.64417
-0.33493233 78.651726 357.05984
-1.3169346 78.061317 358.87329
-1.4330325 77.933273 359.85135
3.6611526 80.974953 347.98776
3.35183 80.528961 349.10379
-1.7783811 78.065842 356.0643
-1.8888324 77.938271 357.04785
-1.5309849 77.68821 358.31476
-1.8758022 77.29203 359.44952
4.164866 80.522491 347.43488
3.6173024 80.021332 348.81616
-2.0684738 77.312546 356.33316
-1.9535201 77.237801 357.06808
-1.9332294 77.011909 357.84732
-1.8219529 76.937012 358.58151
-2.1224563 76.50975 359.64771
1.4523098 78.995117 348.44873
3.8841498 79.512642 348.52695
-2.1331761 76.611801 356.35327
-2.0183003 76.537636 357.08817
-1.9053463 76.463326 357.82269
-2.1110504 76.187988 358.84607
2.0699995 78.465843 348.65482
3.4421866 78.839661 349.02402
3.5609202 78.763336 349.77936
-2.1044827 76.062401 356.32782
-1.9903545 75.988541 357.06348
-2.418788 75.664398 358.33426
-2.4001968 75.440453 359.11066
1.8682387 77.851311 348.88751
2.0849502 77.930344 349.59235
-1.7881225 75.663582 356.02365
-1.9616311 75.439453 357.03812
1.8989581 77.290131 348.86029
2.0195796 77.215378 349.6134
-2.0470335 74.963257 356.27713
-2.1573603 74.841095 357.25986
-0.25529581 74.769051 359.4592
4.9860902 78.317825 344.87778
1.9290831 76.728783 348.83389
2.0497186 76.654457 349.58694
2.1691179 76.5802 350.33896
-2.3376517 74.143211 357.418
-0.6335634 74.06456 358.0517
-0.22660168 74.219429 359.43378
4.6949549 77.511719 344.18695
4.9654446 77.558693 344.82806
2.1924098 76.218781 348.54672
2.1054409 75.922813 349.45178
2.2118418 75.934235 350.25867
-1.4258627 73.888054 356.4671
-0.7224158 73.393707 359.00906
4.4891701 76.8899 344.42618
4.3751636 76.76284 345.45676
2.6896572 75.758926 347.99799
2.3807592 75.326782 349.11151
-0.78395957 73.532921 355.79568
-1.0591204 73.313324 356.93115
4.1578465 76.342972 343.90198
4.183269 76.1138 344.71677
4.419157 76.108948 345.37424
4.5283527 76.121101 346.19223
-0.57740659 72.857613 356.40829
-1.2402916 72.494041 357.93536
-0.66647732 72.294838 358.95978
-0.55970883 72.223038 359.69534
4.4270306 75.82608 343.60593
4.1156287 75.390869 344.73917
4.2232985 75.34761 346.47968
2.6376646 74.509613 348.96069
2.5480504 74.216034 349.86621
2.775285 74.210823 350.51801
-0.32234225 72.352715 356.13443
-1.0809202 71.841393 357.70804
-0.63840866 71.745262 358.93509
-0.30539575 71.72023 359.42526
4.2210751 75.205482 343.84656
4.392899 74.67717 346.237
3.1757023 73.594604 350.02084
-1.2779059 71.245399 357.93015
-0.94364238 71.220535 358.42004
-0.2773571 71.170456 359.4006
4.107513 74.516777 343.9418
4.1787162 74.254997 344.68372
4.4240599 74.110008 346.20966
4.7816825 74.087265 346.70718
3.2058907 73.032249 349.99435
-1.0240023 70.741188 357.65802
-0.91485667 70.670921 358.39471
3.8487942 73.709114 344.15958
4.2106566 73.686943 344.6557
4.5709491 73.664497 345.15298
4.8128891 73.52002 346.6799
4.0224233 72.99292 348.33017
4.0401125 72.767845 349.13766
3.5856164 72.446129 350.46445
2.3362358 71.832237 352.60007
-0.99518454 70.190948 357.63272
-0.8867414 70.121017 358.37018
3.8543744 73.36673 343.31689
3.8807805 73.141121 344.13153
3.769352 73.02076 345.16098
4.8441572 72.952538 346.65262
4.0527859 72.42791 348.30362
-0.56236935 70.386383 354.75482
2.0359919 71.075264 352.8768
-0.74120063 69.685036 357.36066
-0.85865664 69.571152 358.34558
3.7868254 72.643814 343.33929
3.6768906 72.524399 344.3703
3.6124716 71.767677 348.80066
-0.96979797 69.707909 354.28485
-0.85516065 69.638931 355.02563
-0.74290335 69.56987 355.76688
-0.34704831 69.292145 356.97473
-0.3779943 69.108879 357.82666
3.8188746 72.075005 343.31137
3.4723279 71.90873 344.60986
4.5491319 71.840347 346.10068
3.3814361 71.156837 348.13498
2.8865404 70.876114 349.53363
-0.71380985 69.198914 354.00742
-0.60002697 69.130219 354.75015
-0.37588033 68.992775 356.23236
-0.12293859 68.601334 357.55411
5.0499759 69.135452 359.823
3.2343435 71.293549 343.94135
3.4044831 71.188423 344.63226
4.1440673 70.919472 346.43735
3.1238377 70.358681 348.34763
3.0081217 70.24305 349.36487
-1.137193 68.557854 354.48483
4.3698711 68.445663 359.66138
4.464921 68.375366 360.40814
3.3365607 70.468483 344.6546
3.2260356 70.352905 345.68115
3.939589 70.306343 346.67441
3.3890443 69.840523 348.05875
3.0384331 69.680222 349.3385
-0.7943567 67.977821 354.0704
-0.971268 67.768158 355.09399
-0.75128752 67.764206 355.73608
-0.41415465 67.739281 356.22739
0.38937676 67.583008 357.00647
4.3012123 67.95916 358.88919
4.3974981 67.889229 359.63718
3.3685603 69.901276 344.62668
3.4929245 69.832504 345.38818
3.1033928 68.859169 349.14859
-0.70478243 67.173134 354.7648
-0.36528438 67.148132 355.25562
-0.25423646 67.080795 355.99728
4.3289018 67.402229 358.86502
4.4251556 67.332794 359.61298
3.8721285 69.424911 344.06458
3.5242674 69.265633 345.36099
0.92242932 68.14875 348.93713
2.6681671 68.208076 349.64151
-0.36868137 67.025223 353.65256
0.001574669 66.569557 355.72223
4.2593465 66.914032 358.09171
4.3573537 66.845268 358.84006
4.4528594 66.776276 359.58875
4.1399999 68.901436 343.76941
3.7918925 68.743477 345.0672
2.4659889 67.60244 349.87451
-0.32204247 66.255943 354.41595
-0.30710036 66.04142 355.20496
0.030689877 66.01606 355.69687
0.36745816 65.990646 356.18936
4.2878461 66.356468 358.06677
4.3851199 66.288109 358.81592
4.4805632 66.21965 359.56461
3.4426596 68.015854 345.42749
0.75445694 66.985283 349.14236
2.0317762 66.955147 350.36606
0.48787928 65.973282 353.58719
-0.05035555 65.528633 354.92795
0.62429541 65.477692 355.91382
0.73174077 65.411324 356.65753
4.3155828 65.798843 358.04263
4.413588 65.730965 358.79102
3.6540616 67.304947 345.11151
1.1037501 66.395836 348.71527
0.92702466 66.188065 349.75882
0.51724452 65.417267 353.56186
0.88195884 64.963722 355.63751
4.3441739 65.241089 358.01773
4.441339 65.173721 358.76691
0.84980345 65.608269 348.92532
0.96898401 65.542686 349.67783
0.56101626 64.647766 354.32797
0.57354522 64.434517 355.11899
0.91115338 64.408913 355.61212
4.7037554 64.656624 358.49216
6.1623521 64.656967 359.49359
3.2478817 66.085617 345.58762
3.3691113 66.019501 346.349
0.99994493 64.982719 349.651
2.8399234 64.792252 352.87906
1.3978419 63.932636 355.08392
1.2762946 63.82798 356.08102
1.4859166 63.697414 357.57062
5.8619685 64.12487 358.96725
6.1902146 64.097748 359.4693
3.2793462 65.518944 345.56058
3.1664662 65.411858 346.58554
1.0309975 64.422638 349.62418
0.94743514 63.72316 353.97778
0.81191844 63.019951 357.41324
1.8466322 63.116844 358.04086
5.5607309 63.59269 358.4415
5.8898311 63.565639 358.94305
6.2180314 63.538433 359.4451
3.3114517 64.952316 345.53281
3.0976489 64.69632 346.60736
1.8716853 63.917141 349.57397
1.4469604 63.032307 354.23941
1.5636333 62.755867 355.77963
0.55845612 62.245712 357.61383
6.0529637 62.896252 358.71225
6.2458792 62.979107 359.42081
3.0286324 63.980873 346.62906
2.1162207 63.608131 348.48441
1.9021006 63.355675 349.54779
4.5336571 63.646038 351.1619
4.2058611 63.242699 352.27206
1.5929675 62.200069 355.75427
2.1351566 61.834385 358.53229
5.5083642 62.111477 359.23395
3.3750527 63.818649 345.47812
2.1281867 63.257717 347.65292
1.8159783 62.857834 348.76596
2.1646028 62.832851 349.26154
4.5886946 63.036774 350.16382
4.8110256 63.034801 350.82092
4.2355623 62.680191 352.24655
1.2293276 61.514927 356.12802
1.0717202 61.213127 357.06595
1.4038837 61.186626 357.56073
1.7351013 61.16008 358.05594
1.6071175 61.059879 359.04721
3.5202134 63.355137 344.42099
3.3060544 63.102131 345.49973
3.0030265 62.923267 346.7178
2.0787876 62.334091 348.47849
2.1958132 62.270676 349.23468
2.5662348 61.446682 353.89682
1.3248215 60.905167 355.99884
1.6619838 60.66877 357.28592
1.7642337 60.605762 358.03064
1.6349206 60.506538 359.02341
3.5524442 62.787037 344.39328
3.2370551 62.385906 345.52127
2.8901694 62.245632 346.81061
2.1100292 61.77142 348.45166
1.994873 61.670685 349.46799
3.0332427 61.594582 350.95706
3.1432335 61.5313 351.71332
3.8270757 61.479645 352.70941
1.4622546 60.078205 357.51004
1.3347249 59.979935 358.5033
3.8205743 62.257568 344.09784
3.2692521 61.819202 345.49356
3.155534 61.718342 346.51968
2.3735445 61.245922 348.16336
2.0260823 61.10891 349.44122
2.9513354 61.095238 350.17493
3.1736798 60.96965 351.68723
3.8568816 60.917835 352.68402
1.5676131 59.86618 355.7673
1.3632452 59.426449 358.47876
3.8528678 61.688663 344.07016
3.6818533 61.401886 345.07883
3.1876378 61.152428 346.49203
2.4048336 60.682461 348.13651
2.0573533 60.546932 349.41443
2.9818296 60.532597 350.1488
3.2041872 60.407925 351.6611
2.4305491 59.525181 354.87045
0.96014774 58.961189 357.21472
6.2106867 59.325581 359.36414
3.5684366 60.722389 345.17218
3.219162 60.586361 346.46515
2.4355745 60.118816 348.11044
2.2197137 59.873726 349.1756
2.2239373 59.751022 350.03354
2.347487 59.603424 350.73419
2.6915212 59.577511 351.23068
3.0337703 59.551571 351.72849
4.0506206 59.682407 352.4213
2.4600258 58.967178 354.84515
0.43528122 58.194122 357.73203
6.4755464 58.801037 359.08847
3.8353953 60.191399 344.87842
3.3393409 59.945747 346.29437
2.9334757 59.626904 347.55823
2.1505766 59.16415 349.19623
2.2655056 59.103176 349.95197
2.378665 59.042053 350.7074
3.405627 58.963829 352.20047
0.91360503 57.913303 356.42096
0.59266514 57.52985 357.50311
6.4127264 58.303043 358.30969
6.2672524 58.20639 359.315
