ply
format ascii 1.0
comment PCL generated
element vertex 1554
property float x
property float y
property float z
element camera 0
property float view_px
property float view_py
property float view_pz
property float x_axisx
property float x_axisy
property float x_axisz
property float y_axisx
property float y_axisy
property float y_axisz
property float z_axisx
property float z_axisy
property float z_axisz
property float focal
property float scalex
property float scaley
property float centerx
property float centery
property int viewportx
property int viewporty
property float k1
property float k2
end_header
8.3982677 37.300064 344.55423
3.2516441 36.69614 344.57053
2.5317209 36.495415 344.63144
2.0465853 36.466358 344.97208
1.3538697 36.567337 345.19925
0.66052854 36.668186 345.42416
-4.0760813 35.82328 343.2457
-1.8737721 36.665264 350.18503
8.4666433 36.654949 344.57019
7.7204051 36.626469 344.70624
7.3345494 36.857113 345.26324
-3.2205498 35.389027 343.27637
-4.0647655 35.277599 343.25504
-4.5478573 35.248775 343.58344
-1.9779038 36.021488 350.05005
8.7440834 36.095394 344.79959
7.7344532 36.068333 344.71887
7.2496691 36.039268 345.06931
-3.8054543 34.729404 343.47702
-4.5364656 34.70298 343.59274
-5.505548 34.645355 344.24521
-1.6419414 35.418953 350.32199
8.0108252 35.508549 344.94797
7.2630301 35.480938 345.08118
6.5240932 35.65097 348.40427
2.4907131 34.974518 345.43149
1.6467398 34.905422 345.44797
1.1598034 34.876404 345.7861
-5.0093551 34.128143 343.9288
-5.4941254 34.099365 344.25446
-1.3756708 34.859032 350.55435
8.0787592 34.863018 344.96298
7.3854742 34.749092 345.09933
6.5123105 35.023476 348.36319
4.6138649 34.745224 347.39362
2.1232142 34.21751 345.78799
1.3804392 34.191196 345.91025
-3.5347507 33.633213 343.7084
-4.0192618 33.604244 344.03665
-4.7515087 33.578701 344.15076
6.7055974 34.077137 345.24622
6.1627412 34.203941 347.94095
3.779434 33.901096 347.31747
1.6484184 33.633522 346.13779
-3.5227482 33.086147 343.71844
-4.0079002 33.057163 344.04611
-4.4928532 33.028286 344.3735
4.0524487 33.339031 347.54858
-1.7642853 32.748222 343.052
-2.9230731 32.783802 344.35818
7.2573037 32.95285 345.70544
5.9862804 32.935078 345.40158
-1.7977953 32.074085 342.96115
-2.5306373 32.049717 343.0802
-3.0024464 31.981989 344.1637
-3.4882846 31.953001 344.49203
-3.9738789 31.924 344.8201
6.5222449 32.368259 345.84839
-1.0528286 31.550272 342.85074
-1.7858995 31.526213 342.97147
-2.5187569 31.502348 343.09052
-3.2392788 31.438921 343.96078
-3.9625018 31.375513 344.82956
6.3095293 31.77459 346.42514
-1.0401698 31.001818 342.86176
-1.7739885 30.978327 342.98181
-3.2273219 30.890938 343.97095
0.1780179 31.595375 349.61282
6.0618186 31.220356 346.21936
-0.22816905 30.560938 343.61139
-1.5120827 30.424105 343.20401
0.20265809 30.851612 345.66064
-2.4818821 30.365744 343.8645
-3.215991 30.342859 343.9805
0.70505685 31.025036 350.06918
5.5531411 30.673008 345.79568
4.2869992 30.661566 345.48795
-0.51409978 29.891502 343.30682
-1.2493986 29.868784 343.42697
-1.9844532 29.846268 343.54538
-2.4698949 29.817085 343.87482
-2.9551225 29.787893 344.20383
6.266664 30.010674 345.57568
5.2093234 29.867104 345.38156
4.4080238 29.930996 345.5047
-0.73502576 29.305246 343.86298
-1.7220742 29.290348 343.76865
-2.4579837 29.268307 343.8851
-2.93083 29.195349 344.96982
-3.4184229 29.166115 345.29712
5.9703732 29.332094 345.26624
5.2226238 29.309462 345.39359
4.2491374 29.378529 345.37244
-0.47063243 28.747166 344.08719
-1.710224 28.740973 343.77899
-2.4460726 28.719435 343.89539
-3.4070916 28.616224 345.30658
-3.8951271 28.587076 345.63287
5.7227988 28.78163 345.06168
5.235878 28.751818 345.40558
4.4891815 28.72982 345.53174
-0.20626953 28.188093 344.31137
-1.4477992 28.183348 344.00232
-1.9339273 28.154041 344.33237
-2.4204674 28.124725 344.66147
-3.1452768 28.05789 345.53192
-3.8830938 28.037107 345.6431
6.2576652 28.207401 345.50699
5.2490716 28.193981 345.4176
4.5023899 28.172476 345.54382
3.1105084 28.16358 347.44543
-0.93322778 27.615816 344.43976
-1.6710292 27.595228 344.55667
-3.1339152 27.507303 345.5415
-3.8718085 27.487022 345.65259
7.4203215 27.86677 346.6037
5.5228043 27.627325 345.64676
4.5157208 27.615038 345.55585
3.0760229 27.478216 347.35147
-2.3830881 26.976543 345.43954
-3.121958 26.956633 345.55173
7.4335613 27.305225 346.61597
5.536654 27.0688 345.65958
4.7874851 27.04814 345.78406
4.2988553 27.018278 346.12534
3.8097825 26.988503 346.46576
3.0886977 26.919565 347.36279
-0.89188087 26.464422 345.22101
-1.6319408 26.444794 345.336
-2.3718634 26.425253 345.44922
-3.1106114 26.405849 345.56128
7.4938378 26.588272 346.58884
6.0717955 26.490471 346.1062
3.8230829 26.430367 346.47778
3.1013572 26.360804 347.37402
-1.6200752 25.893015 345.34631
-2.3598759 25.873987 345.45947
-2.8487353 25.844606 345.78668
7.3627286 25.92985 346.42883
6.085691 25.930744 346.11905
5.3348742 25.911043 346.24374
4.3253031 25.901897 346.14951
3.8640862 25.821234 347.26572
3.3732591 25.79141 347.60504
0.12762763 25.367683 345.34189
-0.26941273 25.58737 345.88196
-1.3559408 25.330231 345.57227
-2.3486664 25.322489 345.46918
-2.8374801 25.293119 345.79626
7.1125298 25.379345 346.2226
6.0988998 25.370903 346.1312
5.3481135 25.351696 346.25586
4.8581414 25.321703 346.59717
3.8774173 25.261791 347.27774
3.2897356 24.980797 347.40222
0.50975907 24.882034 345.71014
-0.34933546 24.784441 345.68381
-1.3439227 24.77766 345.58264
-1.8330414 24.748178 345.91147
-2.322603 24.718792 346.23935
7.3897572 24.80698 346.45401
6.1119871 24.810955 346.1434
4.4112163 24.679113 347.72879
1.4986401 24.503578 345.88788
0.1521067 24.260559 345.36356
-0.33669153 24.230892 345.69495
-0.82596284 24.2012 346.02551
-1.316394 24.171692 346.35428
-2.6079085 24.054277 345.92819
6.6503029 24.227001 346.59271
4.8532548 24.256433 345.84476
5.40727 24.178543 347.05954
4.4237237 24.118465 347.74017
1.3139584 23.7679 345.63397
0.16398767 23.706793 345.37402
-0.32478005 23.677124 345.70535
-0.81402087 23.647535 346.03583
-1.3044977 23.617928 346.36465
-1.7947152 23.588423 346.69318
6.9264011 23.653408 346.82379
6.0207548 23.473146 346.73251
1.4306138 23.144279 345.70032
0.17650953 23.153027 345.38525
-0.31297538 23.123341 345.71594
-0.80212462 23.093664 346.04633
-1.2763888 23.00857 347.1387
1.4431967 22.588919 345.71155
0.69761294 22.572348 345.82767
-0.046094052 22.556021 345.94339
5.9373889 22.526325 346.75421
5.4461651 22.496098 347.09537
1.7123367 22.019457 345.93967
0.7101807 22.017393 345.83902
-0.034228295 22.001553 345.95395
-0.7615853 21.928152 346.8302
-1.2209331 21.782845 348.69193
5.9365268 21.782412 347.44037
4.9675703 21.904812 347.44788
1.7248892 21.463404 345.95096
0.7219702 21.462322 345.84964
0.23195124 21.43251 346.18091
-0.25863233 21.402702 346.51126
-0.74973476 21.373074 346.8407
7.4397326 21.349607 348.81152
4.4878616 21.313501 347.79871
1.9933119 20.892223 346.17844
0.99004191 20.89213 346.07745
0.24453424 20.87726 346.19214
-0.24672075 20.847532 346.52173
-0.70355058 20.697985 348.38373
2.5215266 20.304516 346.62524
1.2580832 20.32094 346.30527
0.76743871 20.291019 346.63724
-0.69147098 20.14072 348.39413
-1.9496812 20.158167 348.06149
6.1674294 20.127096 347.65967
7.1159596 20.094919 349.25519
5.0372663 20.159344 348.26395
4.0201716 20.160711 348.16006
1.527742 19.748589 346.53448
0.77919781 19.734648 346.64792
0.070297547 19.596722 348.29559
-1.1905372 19.615604 347.96426
-2.1924193 19.618544 347.8515
6.5640888 19.62509 348.03772
3.9379146 19.352234 347.95718
1.7966229 19.175018 346.76294
1.3052307 19.145084 347.09558
0.81263298 19.115128 347.4267
-0.17329492 19.055384 348.08664
-1.5480224 18.999733 347.61145
7.1066175 19.027927 348.49301
6.3477736 19.014137 348.61288
5.5892043 19.000643 348.73111
3.9504826 18.791069 347.96863
2.3249753 18.583319 347.21106
1.3170357 18.587406 347.10626
-0.16127636 18.497808 348.09717
-1.7661086 18.292456 347.33386
6.2077408 18.291174 348.40604
5.5541844 18.313477 348.63492
4.2251015 18.212343 348.20145
2.596313 18.006908 347.44147
1.8448082 17.994495 347.55518
1.3514477 17.964415 347.88699
0.85765982 17.934523 348.21783
-0.15015808 17.940123 348.10696
-1.7548227 17.737268 347.3436
6.0131354 17.657295 348.19891
5.5192413 17.626705 348.5386
4.2375932 17.65048 348.21295
2.3500805 17.465799 347.23389
1.8566285 17.435608 347.56586
1.3633748 17.405638 347.89758
0.86966324 17.375641 348.22842
0.1182499 17.364033 348.33762
-1.2343134 17.145166 347.79135
5.3245292 16.993816 348.3302
4.2500391 17.088619 348.2244
1.8691356 16.876757 347.57721
1.3752714 16.846756 347.9082
0.88152933 16.816763 348.23901
0.1301617 16.805658 348.34811
4.5246429 16.507488 348.45724
1.3878242 16.287701 347.91956
0.89338011 16.257799 348.24957
0.025601981 16.17259 348.21323
5.0313654 15.975235 348.13168
4.5371194 15.944824 348.46878
0.90532249 15.698725 348.2601
4.3881741 15.243949 348.26205
4.4686513 14.576017 348.27612
4.2186956 14.034919 348.06659
0.96171272 13.948228 349.06281
4.755991 13.429125 348.52036
3.4752734 13.464437 348.19186
0.97357887 13.387854 349.07343
4.7684679 12.865965 348.53189
3.7490683 12.880383 348.42422
1.7408414 12.834785 348.97668
4.0236106 12.295247 348.65729
1.4476001 12.17627 348.65781
4.5609827 11.685259 349.11237
0.89638227 11.542939 348.1188
4.5735054 11.121396 349.12396
1.4256209 10.935353 348.57083
4.3230009 10.582087 348.91345
3.3025017 10.60088 348.80252
2.54442 10.595308 348.91119
4.8613954 9.9681225 349.36923
4.8738112 9.4034615 349.38077
4.8862729 8.838686 349.39243
3.7130339 8.7103567 349.06012
2.7493038 8.6444073 348.94843
4.0439954 8.031764 349.2944
2.7618415 8.0821476 348.9599
5.1749411 7.6815877 349.6384
2.5128314 7.5472202 348.74924
4.8766184 7.0251493 349.31738
4.1150422 7.0225997 349.42685
3.3085778 6.9014015 349.42572
4.5782499 6.370244 348.99658
3.321131 6.3378601 349.43723
4.5906806 5.8060813 349.00815
4.0932159 5.7755527 349.34003
3.3328753 5.77424 349.44806
4.8205652 5.0944371 349.13208
4.0592179 5.0935354 349.24121
3.6070676 5.1809335 349.6817
4.9599328 4.6550126 346.93561
6.2258511 4.006948 337.84763
-2.2504954 103.3166 338.99863
-2.2205493 102.77135 338.99564
-2.7171333 102.53493 339.59146
-3.1163459 102.45316 340.2106
-1.7924436 102.30786 338.37079
-2.2869983 102.07247 338.96793
-2.7836893 101.83705 339.56354
-3.1829169 101.75526 340.18271
-1.762589 101.76257 338.36786
-2.7538195 101.29278 339.56064
-2.8219986 101.27772 340.15176
1.2090482 102.07088 337.5766
-1.8290533 101.06274 338.34003
-2.1493459 100.95333 338.94397
-2.7239649 100.7485 339.55774
-2.7930899 100.73244 340.14893
-3.1934319 100.65263 340.76746
0.90300214 101.45568 337.60443
0.50082982 101.37465 338.23206
-2.2937839 100.28409 338.93411
-2.6941257 100.20427 339.55484
-2.7631896 100.18816 340.14603
-3.1645689 100.10831 340.76468
-0.23685618 100.54095 338.26434
-2.2639601 99.739822 338.93124
-2.6642406 99.660004 339.55206
-2.733381 99.64389 340.14322
-2.8044744 99.627708 340.73428
-0.9745881 99.709229 338.29666
-1.393229 99.446045 338.8765
-2.6344776 99.115341 339.54922
1.3333964 99.871994 337.56512
0.34082073 99.516701 338.2052
-1.5397117 98.776169 338.86652
-1.9400228 98.696991 339.48862
-2.74475 98.538185 340.72876
-0.38525945 98.724686 336.47623
-1.6438153 98.214027 337.11505
0.42729124 98.87001 338.1701
-1.5768305 98.214142 339.45667
-1.9801935 98.135071 340.07825
-2.3377144 97.974327 340.67136
-0.4527154 98.024399 336.44839
-1.6129079 97.6689 337.11218
-2.3416128 97.529266 337.76639
-1.5469301 97.667892 339.45404
-2.1664112 97.538635 341.85159
-0.85141861 97.262711 336.45245
-1.5820462 97.123665 337.10944
-1.9795192 97.046394 337.73303
-1.5170144 97.121521 339.45129
-1.9203316 97.043152 340.07285
-2.0634794 97.009438 341.25708
-2.2115102 96.974724 342.44061
-0.82148761 96.716423 336.44971
-1.6486326 96.425804 337.08121
-2.0459225 96.348946 337.70486
-1.3221953 96.466339 339.98633
-2.0599031 96.326927 340.63583
-2.2304285 96.156464 341.20102
-2.3033986 96.139008 341.79254
-0.45725763 96.231049 336.41486
-0.85468483 96.154465 337.04129
-1.7822077 95.711929 337.6456
-1.7950592 95.688438 340.57825
-2.2004516 95.610382 341.1983
-2.2744288 95.59269 341.78983
-0.82367051 95.607857 337.03851
-1.7650671 95.141884 340.57559
-2.1714973 95.064209 341.19565
-2.2454896 95.046402 341.78717
-2.985502 94.908485 342.43149
-0.63580835 94.999634 336.9975
-1.2116635 94.802124 337.61591
-1.78848 94.604492 338.23264
-1.8564606 94.587624 338.82501
-1.7351056 94.595192 340.57291
-2.1415663 94.517921 341.19296
-2.215589 94.499947 341.78458
0.3053298 94.709229 336.34207
-1.3581768 94.134628 337.60629
-1.7575115 94.058884 338.22989
-2.1580062 93.983002 338.85226
-1.7061664 94.048386 340.57019
-2.1126728 93.971413 341.19043
-2.1866653 93.953323 341.78192
0.0028843884 94.102051 336.37177
-1.3272235 93.588478 337.60355
-1.7276568 93.513084 338.22723
-1.7966902 93.49588 338.81976
-1.3427294 93.560135 340.53918
-2.1811666 93.272728 341.16031
-2.2561507 93.254387 341.75168
-0.25559589 93.413773 336.37332
-0.89682865 93.117104 336.97595
-1.2963159 93.042274 337.60104
-1.6967341 92.967163 338.2247
-2.0981748 92.89196 338.84698
-1.3128289 93.012657 340.53662
-0.53247631 92.628036 336.94135
-1.2653931 92.495941 337.59833
-1.6668794 92.421204 338.22217
-2.0683506 92.346405 338.84457
-2.8108568 91.932411 340.59314
-2.8848951 91.913818 341.1835
-4.881773 91.290947 342.44113
-0.8349067 92.023659 336.97076
-1.2354012 91.949493 337.59579
-1.6359566 91.875053 338.21964
-1.8044066 91.706169 338.78519
-1.9728719 91.536758 339.35013
-1.9463948 91.670013 339.96921
-2.780987 91.387047 340.59061
-2.8559864 91.368317 341.181
-2.8335073 91.5009 341.79871
-4.6023989 90.784233 342.99924
0.19848686 91.646873 336.87204
-0.87098771 91.459587 337.5618
-1.9429867 90.9907 339.3476
-2.0149343 90.972282 339.93939
-2.7521241 90.841644 340.58817
-2.826086 90.822823 341.17844
-0.50652838 90.968483 337.52808
-0.90897602 90.894592 338.15323
-1.9131321 90.444427 339.34515
-1.9850339 90.425926 339.93686
-2.7222238 90.296143 340.5856
-2.7972233 90.277115 341.17603
-3.6114576 90.12796 342.40958
-0.14200795 90.476334 337.49411
-0.72202921 90.283646 338.11215
-1.0474643 90.178009 338.71707
-1.5495576 89.9534 339.31277
-1.9550877 89.879463 339.93433
-2.0280728 89.860588 340.52606
-2.2549176 89.802826 342.2999
-3.0235319 89.385422 344.03937
-3.3376715 89.461525 344.68271
0.6605773 90.190498 337.45511
-1.1159734 89.479721 338.68729
-1.5195808 89.406433 339.31024
-1.9251415 89.332878 339.93185
-2.3307784 89.259338 340.55219
-2.7383838 89.185555 341.17108
-2.5587063 89.201172 342.32437
-2.9946535 88.838799 344.0369
-3.4082863 88.763931 344.65118
-3.8229415 88.689064 345.26407
1.2642684 89.599388 337.36191
0.52323371 89.471298 338.02167
-1.4896193 88.859383 339.3078
-1.8952562 88.786209 339.92944
-2.2569737 88.630707 340.52145
-2.2422726 88.446373 341.05603
-2.318203 88.426704 341.64706
-2.3951252 88.406776 342.23767
-2.4534891 88.517502 343.44775
-2.9657145 88.292076 344.03439
-3.3803239 88.217567 344.64877
-3.7950246 88.143112 345.26166
0.62222862 88.939728 337.42328
0.55426353 88.921593 338.01917
0.48442173 88.903168 338.61502
-0.79246229 88.419846 339.24533
-2.5240276 87.819252 343.41626
-3.269412 87.692062 344.05753
-3.3513694 87.671165 344.64636
-3.7661159 87.597099 345.25928
1.3274879 88.498283 337.3569
0.58437788 88.371712 338.01669
0.51548213 88.353157 338.61258
-0.83432615 87.852425 339.83643
-2.4951036 87.271935 343.41382
-3.3410952 86.995247 344.02563
-3.4230523 86.974197 344.61429
-3.8377838 86.90052 345.22717
1.3585942 87.947563 337.3544
0.61548412 87.821793 338.01443
-0.19109634 87.596329 338.65308
-1.0660757 87.270378 339.27072
-1.1389999 87.250999 339.86359
-1.31247 87.081238 340.42792
-1.7210824 87.008751 341.04871
-2.2303174 86.786041 341.63959
-2.307224 86.765701 342.2305
-2.4661338 86.724617 343.41141
-3.9084296 86.204353 345.19501
1.3897157 87.396538 337.35205
0.88269389 87.17411 337.95273
-0.29378185 86.846664 338.61365
-1.0350612 86.722458 339.26825
-1.9735265 86.299118 339.86383
-2.1233878 86.259163 341.04626
0.47753546 86.420959 337.95389
-0.26380488 86.297684 338.61121
-1.9435953 85.752266 339.86145
-2.0185337 85.732231 340.45279
-2.5896602 85.458252 343.96701
-3.4368114 85.184792 344.5773
2.0594444 86.379951 337.88123
-0.74603713 85.58036 338.63135
-1.0746005 85.476631 339.23541
-1.9136947 85.205399 339.85904
-1.9885417 85.185257 340.45044
-2.0644872 85.164879 341.0416
-2.8059957 85.042877 341.68842
-2.6613278 84.760765 343.93475
-3.7397461 84.587875 344.60016
-4.8152657 84.415482 345.26141
2.4991169 85.898529 337.24829
1.6513562 85.625366 337.88226
0.46882272 85.301643 338.54483
-1.1441778 84.779213 339.20477
-1.2171172 84.759132 339.79752
-2.0345407 84.617615 341.0394
-2.444252 84.546745 341.6582
-2.1988394 84.413361 343.93652
-3.7108526 84.041756 344.59787
-4.7873793 83.870758 345.25922
0.90658814 84.821709 337.91537
0.16314194 84.700745 338.57352
-1.1132395 84.231255 339.20255
-1.1870944 84.211082 339.79507
-1.5958139 84.140686 340.41672
-2.5140879 83.90464 341.05579
-2.846741 83.801033 341.65479
-2.925631 83.779976 342.24432
-2.5214157 83.687225 343.34018
-2.603312 83.665634 343.93008
-3.3520234 83.544754 344.57043
2.2228341 84.741814 337.27612
1.2743745 84.321236 337.88123
0.53100455 84.20108 338.54019
-0.31402534 83.931625 339.16782
-1.1571022 83.662796 339.79282
-2.8384807 83.127144 341.03384
-2.9164405 83.106041 341.62335
-2.9953918 83.08477 342.21274
-3.2391734 83.02002 343.97949
-4.0707884 82.878143 345.20587
2.0504138 83.9701 337.83411
0.89786023 83.700279 338.50684
-0.3845486 83.233055 339.13696
-0.79227614 83.16349 339.76056
-1.2020484 83.093773 340.38306
-2.4767218 82.629303 341.0029
-2.8865399 82.559761 341.62122
-2.9664068 82.538231 342.21048
-3.7188585 82.309723 343.99173
-4.1414948 82.183502 345.17313
2.0132587 83.317291 337.81277
1.6046005 83.247902 338.44196
-0.76222289 82.614517 339.75845
-1.5274178 82.314919 340.36139
-2.4467599 82.08252 341.0007
-2.8576007 82.013214 341.61899
-2.9365063 81.991653 342.20831
-2.8493142 81.97406 343.94928
-4.2132392 81.489212 345.14035
2.3133247 82.79377 338.37665
1.2250956 82.626595 339.0676
-0.061463878 82.161827 339.69608
-1.3432325 81.699432 340.32004
-1.7529895 81.630638 340.94086
-2.1637998 81.561493 341.56042
-2.2437122 81.539886 342.15082
-2.4054601 81.496185 343.33118
-2.8212597 81.426514 343.94708
2.6843767 82.289162 338.34268
1.9329348 82.17141 339.00375
1.5203093 82.102394 339.63153
0.2296451 81.638504 340.25839
-1.7230127 81.082558 340.9386
-2.1348298 81.013901 341.5582
-2.213659 80.992119 342.14868
-2.2945635 80.970154 342.73898
-2.3764751 80.948158 343.32907
-2.8920124 80.730667 343.91428
-3.209204 80.809418 344.55948
-3.6486442 80.558167 345.12326
2.9837868 81.762779 338.90805
1.5515072 81.549683 339.62943
-1.3590866 80.581123 340.90738
-2.1048377 80.466133 341.55615
-2.1847351 80.444191 342.14661
-2.265609 80.422127 342.73688
-3.4654965 79.94323 345.08377
3.2840972 81.235161 339.47409
1.9003004 80.922768 340.15817
-0.99512988 80.07856 340.87613
-2.074815 79.918259 341.55399
-2.1546819 79.896225 342.14447
-2.2365172 79.874016 342.7348
-2.318459 79.851715 343.32483
-2.4013014 79.829201 343.9147
-2.4862037 79.806602 344.50439
-2.1455369 79.222679 341.52173
-2.558346 79.15519 342.13995
-3.0720065 78.940155 342.72635
-2.5578561 79.1101 344.47116
-2.7444186 78.939003 345.02911
-2.2162435 78.527534 341.48944
-2.6291289 78.460449 342.10757
-3.0420146 78.393173 342.7243
2.1757936 79.259399 340.12781
-1.5728686 78.340668 340.92819
-2.1872585 77.979721 341.48734
-2.5991216 77.912964 342.10547
-3.0131059 77.846184 342.72238
-3.0960245 77.823288 343.31091
-3.180835 77.80027 343.89932
2.5191016 78.623512 339.46713
1.7643785 78.511322 340.12579
-1.5428765 77.792007 340.9263
-2.1571901 77.431747 341.48526
-2.5701213 77.365479 342.10336
-2.9841053 77.298943 342.72025
-3.15185 77.252861 343.89728
1.871369 77.979553 339.52686
1.1176529 77.868507 340.18408
-1.4610842 76.970428 341.4256
-2.2080719 76.861023 342.0733
-2.9551358 76.75161 342.71832
-2.7907312 76.748543 343.8689
2.5816808 77.514465 339.46301
1.1478286 77.315781 340.18222
0.73302072 77.249672 340.80737
-1.8459611 76.355476 342.04312
-2.2609217 76.289581 342.66132
-2.3447711 76.266441 343.25107
-2.8625364 76.053879 343.83542
2.2729177 76.915947 339.49197
0.97465336 76.46804 340.11905
0.76318103 76.697197 340.80548
-1.4009929 75.872009 341.42175
-1.8159231 75.806587 342.04123
-2.2318757 75.741089 342.65933
1.3428525 75.958199 340.08673
1.0287435 76.040154 340.74319
0.95000607 76.017517 341.33862
-1.4526985 75.299477 342.01105
-1.8686816 75.23439 342.62976
0.6988731 75.320679 340.14548
0.28299707 75.255875 340.76987
0.2032678 75.233009 341.36395
0.12250092 75.209877 341.9577
-1.5893061 74.703003 343.19092
-1.6740555 74.679276 343.78156
0.11371734 75.104485 346.65231
0.46968624 74.749542 339.57953
0.29017359 74.580467 340.14294
-0.52071589 74.574875 342.01288
-0.80597818 74.258675 342.5423
-1.2250437 74.194023 343.16168
0.14294699 74.550575 346.65033
1.5132459 74.321167 339.48489
0.21855156 73.882454 340.11011
-0.5315336 73.77813 340.76349
-0.021719625 73.812508 341.8909
-1.1948681 73.643448 343.15973
1.2063745 73.727127 339.51404
0.2487271 73.330887 340.10815
0.1699744 73.307632 340.702
0.0084406771 73.26062 341.8891
0.2591393 73.221062 344.80096
1.4719371 73.068108 339.45007
0.61607188 72.818947 340.07578
0.20011942 72.755775 340.70016
0.11936785 72.732132 341.29385
0.03858573 72.708549 341.88718
0.075642377 72.953224 343.1376
-0.21361776 72.636551 343.66623
0.28939128 72.667496 344.79892
0.40721482 72.936806 345.45837
0.4642837 72.780678 346.58698
0.98451537 72.305916 340.04337
0.23125631 72.203842 340.69836
0.15055048 72.18013 341.2919
0.068730794 72.15638 341.88541
0.1537883 72.123398 343.63718
0.31862092 72.1138 344.79712
0.81972283 72.143166 345.93301
0.38976267 72.078911 346.55154
0.59867746 71.690536 340.66647
0.18071082 71.627953 341.29013
0.098952159 71.604095 341.88364
0.015240388 71.579971 342.47687
0.52133179 71.608955 343.60809
0.8480981 71.588112 345.93109
0.41902289 71.5242 346.54965
1.8271675 71.422722 340.0098
0.96617508 71.176102 340.63467
0.2109322 71.075653 341.28854
0.045415994 71.027496 342.4751
0.55053091 71.055244 343.60632
0.46483552 71.030708 344.20001
0.96705145 71.057869 345.33511
0.87734312 71.032898 345.92929
0.78664297 71.007813 346.52319
1.7536534 70.722488 339.9762
0.99740362 70.622749 340.63293
0.83397794 70.574646 341.8222
0.75020528 70.550278 342.41656
0.58082867 70.501343 343.60455
0.49406523 70.476723 344.19824
0.99631178 70.502655 345.33337
0.90664917 70.477592 345.9274
0.81596422 70.452377 346.52136
6.9153247 71.655205 339.18814
1.1083918 70.093407 340.03644
0.2511375 69.85025 340.65948
1.4581532 70.071312 342.35757
1.0350289 70.009476 342.98087
1.2020285 69.997398 344.1427
1.0257094 69.947372 345.33157
0.93595523 69.922173 345.92566
0.84528559 69.896866 346.51959
6.5067024 70.697662 338.51874
6.0400105 70.721146 339.18674
1.4046936 69.491798 342.95108
1.2323112 69.442223 344.1409
1.0549086 69.391922 345.32983
0.9652766 69.366661 345.92395
6.539259 70.136375 338.51712
6.1174479 70.075043 339.15308
5.6936069 70.013481 339.78775
1.4284265 68.99852 340.59772
0.33268753 68.86528 341.28201
1.2616324 68.886795 344.13919
1.1739535 68.861687 344.7338
1.0852677 68.836456 345.32813
0.99456739 68.811058 345.92221
6.5718312 69.574997 338.51547
5.8027034 69.476768 339.18362
5.3788013 69.415695 339.81772
1.4586786 68.444244 340.5961
0.59735 68.203743 341.21835
1.6323502 68.367348 344.11038
1.2032443 68.306175 344.73218
1.1145278 68.28083 345.32648
1.0238736 68.255333 345.92059
6.6043873 69.013474 338.51382
5.8352447 68.916191 339.18207
5.4113421 68.855515 339.81613
0.86213452 67.541222 341.15436
1.662694 67.811287 344.10876
1.2335576 67.750496 344.73056
1.1439102 67.725029 345.32489
6.5301108 68.305595 338.47961
6.1072164 68.245461 339.11569
5.6823835 68.185112 339.75049
4.8063612 67.942978 340.38196
2.0334728 67.290039 344.07996
1.2629094 67.194687 344.729
1.1732011 67.169197 345.3233
6.0329552 67.538292 339.08145
5.6080461 67.478493 339.71616
5.528439 67.453987 340.31805
1.8082639 66.79023 341.15686
1.5692768 66.548866 341.70273
1.9407586 66.46891 343.41455
1.9579294 66.588249 344.04422
1.8693197 66.562714 344.63965
1.09868 66.468369 345.28738
6.3333435 66.987564 339.65067
5.5610418 66.893143 340.31653
1.8875545 65.955261 341.65494
1.463423 65.896332 342.27969
0.69980246 65.803795 342.9314
0.61311531 65.778259 343.52484
0.52447504 65.752525 344.11813
5.938962 66.3666 340.28363
5.1656218 66.273079 340.94742
-0.048875406 65.040283 342.95288
-0.13650863 65.014511 343.54501
-0.12130636 65.132187 344.17093
1.2209122 65.311218 347.04056
5.8899889 65.780037 340.88461
0.8470242 64.720589 342.33478
-0.12255758 64.343857 342.91776
-0.21023658 64.317978 343.50967
1.2389833 64.636131 346.41019
0.46420801 64.544731 347.05316
0.028891521 64.485657 347.66949
5.922576 65.218224 340.88315
-0.0046418984 63.816643 342.32407
-0.092351392 63.79068 342.9162
-0.06286227 64.024612 344.16812
1.0204309 64.073792 345.84052
0.9268012 64.047356 346.43393
0.49349889 63.98888 347.05157
0.30115801 63.935509 348.23593
5.6066566 64.623505 340.91248
0.36213914 63.294479 342.29352
-0.062160455 63.237392 342.91479
-0.14980891 63.211334 343.50668
-0.13654444 63.3279 344.13257
0.94482642 63.373817 345.80386
0.51152408 63.315933 346.42227
0.077306174 63.2579 347.03934
0.22555338 63.235527 348.19861
5.9856906 64.094231 340.88037
0.39236063 62.7407 342.29208
-0.031893216 62.684017 342.91333
-0.12060977 62.657711 343.50528
-0.20928058 62.631527 344.09698
0.43698758 62.616783 346.38547
0.0025559678 62.559376 347.00247
0.14891113 62.535919 348.16116
5.7242656 63.397335 340.87015
0.33597133 62.16048 342.88333
0.49523529 62.137856 344.04059
1.1085173 62.404755 345.83612
0.031907808 62.004147 347.00098
0.17830878 61.980087 348.15955
1.489018 61.912422 340.48166
0.96279848 61.714531 341.07306
0.87714905 61.688438 341.66663
0.70386642 61.635948 342.85333
0.18792053 61.55344 344.06665
1.1378692 61.848213 345.83481
0.83428055 61.535076 346.35706
0.060222059 61.448784 346.99951
0.20659257 61.424042 348.15805
-0.2317912 61.367195 348.77258
-0.90603566 61.423771 349.44409
1.825605 61.33963 340.4382
0.99417973 61.160088 341.07172
0.90845394 61.133892 341.66541
0.82178217 61.107552 342.25876
0.73411846 61.081177 342.85199
0.64549357 61.054668 343.44498
0.55587679 61.028004 344.03778
1.6386522 61.064243 345.71024
0.86361718 60.97876 346.35562
0.76896507 60.951618 346.94821
0.23498316 60.867973 348.15662
-0.20347692 60.81155 348.77109
-0.98170143 60.726097 349.40656
5.3444276 61.600487 339.68686
1.7863133 60.689117 340.41449
1.024386 60.605404 341.0704
0.9387213 60.579105 341.66415
0.67577618 60.499672 343.44366
2.3524308 60.564423 345.65598
0.79830176 60.395092 346.94675
0.70169652 60.367775 347.53922
0.26326698 60.311718 348.15518
-0.69614893 60.122971 348.77612
2.1562228 60.161716 340.38199
1.0557368 60.05077 341.06915
2.0401418 59.977623 345.681
1.6037875 59.922073 346.30139
0.82664663 59.838436 346.94537
0.73013294 59.811016 347.53775
0.29263416 59.755501 348.15366
-1.0324758 59.359795 348.74155
2.1886418 59.605515 340.38071
1.0869195 59.495926 341.06812
1.0003241 59.469383 341.66159
0.2382744 59.387611 342.31354
1.9139981 59.446064 344.51724
1.8214366 59.418869 345.11172
-1.0459617 58.861225 346.99664
0.75942385 59.254196 347.53641
0.320979 59.199039 348.15234
2.2199466 59.049068 340.37955
1.3519334 58.82711 341.00195
0.92758793 58.773396 341.6261
0.50222009 58.719666 342.2486
1.9444488 58.888474 344.51593
1.5110854 58.834034 345.13727
-0.58323091 58.361549 346.38034
-1.0167474 58.307308 346.99533
-1.4522169 58.253101 347.6088
-0.39985123 58.275894 349.28192
2.251328 58.492531 340.37839
0.85382938 58.077667 341.59039
0.42943805 58.024483 342.21286
0.0030324892 57.971107 342.83405
-0.087591372 57.943935 343.42554
1.8812546 58.303459 345.10916
-0.55392492 57.807022 346.37906
-0.98841792 57.753349 346.99393
-1.7588607 57.673576 347.63165
2.5378315 57.935455 340.94189
0.88518018 57.522739 341.5892
0.4597359 57.469898 342.21173
0.033315051 57.417034 342.83295
-0.39315164 57.364201 343.45258
-0.18679228 57.278111 346.35217
-1.0632905 57.05851 346.95633
-1.4988822 57.005219 347.56976
-2.0375388 56.811359 348.14511
2.5692587 57.378109 340.9408
1.5929772 57.018478 341.52734
0.49003378 56.915306 342.2106
0.18030991 56.748093 346.32529
-1.1381631 56.363983 346.91858
-1.5736938 56.311169 347.53195
-2.0082633 56.258438 348.14368
1.6243279 56.46233 341.52612
0.52133876 56.360664 342.20953
-0.76212043 56.204487 344.06873
0.30533627 56.220127 345.7327
-0.12824117 56.167652 346.34973
-1.5444642 55.757755 347.53064
-1.9801017 55.705372 348.14246
0.97813374 55.857361 341.58585
0.44747323 55.666142 342.17328
0.019984176 55.614548 342.79431
-0.553482 55.50843 343.41156
-0.83598596 55.511383 344.0322
0.33561897 55.664242 345.73157
-0.28125581 55.510826 346.33276
-0.89924455 55.357372 346.9321
-1.5162568 55.204079 347.52942
-1.9518793 55.152218 348.14111
-5.3574672 54.607487 349.44449
-5.7494297 54.471439 350.01535
-6.4285254 54.2281 350.57465
1.3472042 55.32589 341.5545
-0.053820312 54.920845 342.75793
-0.48036346 54.869816 343.37741
-0.90892082 54.818707 343.99567
-0.7143867 54.725128 346.88953
-1.1510466 54.673588 347.50342
-5.5815187 53.8885 348.82834
-5.3304505 54.058998 349.4433
-6.0725164 53.703064 350.55191
1.7174039 54.793159 341.52319
-0.11420736 54.338795 343.34778
0.29768702 54.524109 346.32053
0.20004416 54.495956 346.91147
-1.1217101 54.119251 347.50223
-5.73107 53.241444 348.81033
-6.1638546 53.191116 349.41327
-6.0454845 53.155262 350.55057
1.1378922 54.085785 342.13226
0.34458676 53.834736 342.7265
-0.083955288 53.784401 343.34677
-0.17654751 53.756374 343.93741
-0.27022311 53.72839 344.52789
0.56189257 53.850735 346.25653
0.12427138 53.799892 346.87335
-0.75546223 53.58709 347.47626
-5.2711773 52.743473 348.20471
-5.7030311 52.69368 348.80908
-6.0184674 52.607346 350.54932
4.8158941 54.16843 340.74716
5.5478015 54.441105 341.95609
1.0508127 53.323658 342.66666
-0.053657424 53.229813 343.34576
-0.14626491 53.201778 343.9364
0.48610452 53.154354 346.21841
-0.28949615 53.082211 346.86063
-1.064212 53.010178 347.49991
-4.9130778 52.215961 348.17969
-5.3469763 52.166454 348.78479
-5.6613445 52.079967 350.52652
5.3014421 53.770294 340.75012
4.7610164 53.57946 341.34534
4.6724682 53.551659 341.94412
4.7981362 53.804928 342.61484
0.65159202 52.717999 343.28711
0.22097474 52.668396 343.90714
-0.16155533 52.555065 346.2695
-1.1177223 52.384521 346.89398
-1.4760876 52.295597 347.4863
-4.5549321 51.687355 348.15469
-4.9888005 51.638252 348.76028
-5.4227147 51.589279 349.36447
-5.5284753 51.560276 349.94501
-5.9644647 51.511246 350.54688
6.2636094 53.133873 340.61826
5.1384797 53.03994 341.31329
4.61553 52.96212 342.54181
0.68192053 52.162205 343.28616
0.25128791 52.113018 343.90616
0.98142254 52.090534 345.59805
-0.1322187 51.999435 346.26843
-1.4513643 51.631847 346.86017
-4.7551904 51.146873 347.59549
-4.9607611 51.089298 348.75912
-5.4968863 50.903584 349.32568
-5.6026926 50.874588 349.90604
-5.7094607 50.845463 350.48608
5.8629098 52.520748 341.24985
5.0825644 52.449821 341.91168
4.647141 52.400272 342.54083
4.5556021 52.372143 343.13922
0.28164691 51.557522 343.90524
3.6806502 52.273205 344.3916
4.9700508 52.330124 344.87747
1.0118732 51.533337 345.59702
-0.10292783 51.443623 346.26746
-1.4221194 51.07793 346.85913
-4.0649705 50.636551 347.54532
-5.3635483 50.27647 348.12573
-5.4673562 50.24744 348.70648
-5.8914986 50.130707 351.02628
5.5485916 51.936386 341.28033
5.1141143 51.887367 341.91083
4.6787057 51.838333 342.54007
4.5872278 51.810108 343.1384
4.4946666 51.781864 343.73651
0.89438087 51.013241 344.43948
5.0007463 51.766853 344.8764
1.0413015 50.975914 345.59601
0.044423092 50.828537 346.23462
-4.367938 50.06757 347.56891
5.5802479 51.373447 341.27951
5.1457853 51.324928 341.90997
4.7092943 51.276241 342.53918
4.6187773 51.247955 343.13751
4.5262923 51.219616 343.73563
0.92477041 50.456448 344.43857
5.0313654 51.203354 344.87555
0.63394773 50.370373 346.21304
-4.3404069 49.410366 346.94797
-4.7723222 49.363209 347.55508
-5.3075466 49.179825 348.12347
-5.4112625 49.1507 348.70419
-5.516078 49.121445 349.28452
-4.9669619 49.235435 350.43869
5.7003303 50.838627 340.67862
5.6128354 50.810436 341.27875
5.0692353 50.622913 341.87259
4.6337352 50.574776 342.50168
4.5422573 50.546368 343.09976
4.1047587 50.498173 343.72653
1.2942382 49.918453 344.40976
0.66340655 49.813148 346.21213
-3.5467103 49.0327 346.93381
-4.846509 48.67804 347.51666
-5.2794309 48.631359 348.12244
-5.4890151 48.572834 349.28342
-5.5947914 48.543526 349.86343
5.8617005 50.016468 340.57312
5.1912861 50.088947 341.27286
4.647686 49.902126 341.86609
4.5571389 49.873558 342.46417
4.4656916 49.844955 343.06201
4.0281472 49.797371 343.68872
-0.56872463 49.103176 345.10068
-1.106756 48.919128 345.67929
-3.5185335 48.481743 346.93277
-5.1307626 48.0411 349.25925
-5.5677595 47.994728 349.86237
5.2032228 49.415947 340.63647
4.7696762 49.368855 341.26694
4.6802731 49.340332 341.86523
4.5887651 49.31163 342.46332
4.4972715 49.282909 343.06119
4.059742 49.235733 343.68781
-0.20982118 48.457634 344.44592
-0.2356769 48.520374 345.0603
-1.0774348 48.364803 345.67841
-3.4894414 47.930786 346.93188
-3.949331 47.709175 347.4819
-4.5628958 47.567062 348.07193
-4.6676955 47.537678 348.65359
-5.1026931 47.491837 349.25809
4.8013482 48.806931 341.2662
4.6213675 48.749519 342.46255
4.5288367 48.720768 343.06039
1.481051 48.274284 343.81473
-0.17959955 47.902348 344.44504
-0.61336052 47.856365 345.06204
-1.0481592 47.810356 345.67755
-1.1477706 47.781288 346.26556
-3.7686086 47.078781 347.439
-4.5347958 47.017193 348.07089
-4.6396255 46.987816 348.65256
-4.7453561 46.958305 349.23392
-4.8520932 46.928844 349.81497
-4.9598689 46.899261 350.39569
-5.3989406 46.853691 350.99762
4.8339658 48.244808 341.26553
4.6529937 48.187267 342.46182
3.8712585 48.123562 343.11887
1.4052628 47.579308 343.77679
0.52708507 47.379951 344.388
-0.24688344 47.31773 345.03384
-1.1185408 47.226665 346.26474
-4.1754751 46.48283 348.0455
-4.6115255 46.437843 348.65155
-4.7172556 46.408314 349.23288
-4.8240242 46.378773 349.81387
-4.9327908 46.34914 350.39456
-5.3718171 46.304104 350.99655
4.8655915 47.682671 341.26498
4.8608384 47.481052 341.79282
4.5763359 47.48698 342.4238
3.7946012 47.424377 343.08084
0.89560699 46.839516 344.35904
-0.21652445 46.76215 345.03311
-0.41475514 46.703693 346.21133
-0.85262096 46.658489 346.82581
-3.3791428 45.992138 347.41199
-3.8150558 45.947422 348.02011
-4.5834103 45.887764 348.65063
-4.6891408 45.858154 349.2319
-4.7969003 45.828568 349.8129
-4.9046144 45.798882 350.39355
-5.3447847 45.754295 350.99548
4.4997392 46.786972 342.38562
3.7189202 46.725502 343.04285
0.92602712 46.282314 344.35825
0.15106668 46.221951 345.0047
-0.390093 46.040966 345.58368
-0.48975003 46.011574 346.17242
-0.92763114 45.966873 346.78683
-3.4546366 45.410908 347.99454
-4.223937 45.352097 348.62579
-4.6620321 45.30793 349.23096
-4.7688303 45.278286 349.81186
-4.8775668 45.248566 350.39252
-5.3176913 45.204369 350.99445
4.5313191 46.224834 342.38498
3.7504849 46.164345 343.04208
2.6273675 46.088612 343.72534
0.9564625 45.724941 344.35751
-3.5310915 44.829529 348.57678
-4.4812789 44.677139 349.18854
-4.8440552 44.593086 349.77191
-4.9528522 44.563263 350.35242
-5.392931 44.519566 350.95413
5.818995 45.983543 342.36768
4.1262708 45.618122 343.01147
1.4226426 45.211559 343.7366
1.3261137 45.18214 344.32846
0.55005455 45.123619 344.97571
0.11211251 45.079666 345.59311
-0.32567701 45.035744 346.20908
-3.1696343 44.291256 348.55167
-3.9420934 44.234226 349.18228
0.93021351 44.544399 343.74933
0.57267201 44.460331 344.34659
0.37552485 44.401196 345.52704
0.27490658 44.37154 346.11688
-0.16500399 44.328152 346.73248
-3.1404505 43.738731 348.55078
-3.9139166 43.682663 349.18137
-4.6864214 43.626797 349.80908
-4.7951884 43.596977 350.38962
1.3791819 43.960091 343.69742
0.49778393 43.768017 344.30807
0.39908829 43.738335 344.89822
-0.23993787 43.635841 346.69308
-3.989141 42.99667 349.1413
-4.4293418 42.954334 349.74609
-4.8704739 42.91198 350.34937
-5.0836029 42.747704 350.8898
2.5378528 43.576561 343.64716
-5.0554571 42.197224 350.88882
1.8857061 42.991486 343.70502
0.89677203 42.6665 344.27814
0.45995906 42.624466 344.89679
1.0569576 42.672432 346.63321
-3.5887172 41.721798 350.21738
-5.8138056 41.156742 343.42654
0.92726851 42.108906 344.27753
0.48932633 42.067329 344.89618
0.86533922 42.000816 346.61185
-4.3405538 41.209026 350.29294
-4.8988304 41.22958 350.92661
-4.9365692 40.690052 342.20642
-4.9308414 40.792023 342.82449
-5.7838898 40.609928 343.42612
-6.2090917 40.569962 344.03381
0.85911512 41.521343 344.86752
-4.1993065 40.595905 350.26105
-4.9740853 40.545185 350.88602
-5.0858889 40.514965 351.46533
-4.90557 40.142391 342.20602
-6.5054679 40.013882 344.06155
1.5693712 40.984871 344.81046
1.2656858 40.894497 346.58383
-3.1875348 40.361012 349.71207
-3.8386731 40.053776 350.2374
-4.9470077 39.994286 350.8851
-5.3902764 39.954388 351.48587
-4.3713436 39.694546 342.19019
-5.2996655 39.55529 342.81613
-5.7248669 39.516087 343.42526
-5.8245854 39.486137 344.00473
-5.9243956 39.456104 344.58395
1.9402283 40.436123 344.78165
1.1588281 40.385494 345.42902
1.6365734 40.345421 346.55646
-3.2637508 39.674381 349.67148
-3.81042 39.501404 350.23642
-4.2547264 39.461819 350.84003
-5.0315652 39.413036 351.4635
-4.9470029 38.91581 342.16797
-5.3711972 38.87701 342.77841
-5.7963076 38.838303 343.38745
-5.8127289 38.740093 344.51431
1.8702443 39.846256 345.37292
1.7686343 39.815952 345.96454
1.6660935 39.785709 346.55582
-3.3389904 38.987995 349.63071
-3.783174 38.948788 350.23563
-4.2275109 38.909718 350.83917
-4.6728697 38.870605 351.44104
-4.1595755 38.51511 342.14471
-5.2149353 38.176819 343.29126
-5.741961 38.108276 344.47922
2.3805616 39.244049 346.50153
-3.7549667 38.396118 350.2348
-4.2002954 38.357498 350.83826
-4.8245273 38.22789 351.42041
-3.8000414 37.973759 342.11392
-4.2271652 37.935707 342.72635
1.7163483 38.458805 345.29272
-2.5088134 38.030357 349.62231
-3.7267902 37.843445 350.23401
-4.173141 37.805191 350.83746
-4.4837728 37.294479 342.72061
-4.8273921 37.087948 343.26102
-5.2556453 37.050514 343.87042
-5.5823593 37.143475 344.51639
-6.0116663 37.106159 345.12302
-2.5859756 37.342896 349.58124
-3.365958 37.297829 350.21039
-4.1449642 37.252811 350.83667
-4.7972627 36.539349 343.26065
-5.2255769 36.502422 343.87003
-5.6538768 36.465511 344.47791
-2.668427 36.757893 350.16351
-3.5184574 36.625889 350.76401
-3.4768221 36.300007 342.66574
-5.0957747 35.984573 343.28976
-5.1965156 35.954067 343.86969
-5.2972717 35.923691 344.44934
-5.5037427 35.862614 345.60788
-1.9688206 36.215847 350.11621
-3.1920009 36.034443 350.72693
-4.7381477 35.441814 343.26004
-5.1664925 35.405785 343.86932
-5.2682867 35.375256 344.44901
-5.3709497 35.344681 345.02835
-5.4747424 35.314079 345.60745
-1.603731 35.665974 350.09213
-2.9345851 35.354015 350.66214
-4.3795133 34.897976 343.23035
-4.8088045 34.862301 343.84018
-5.2391791 34.826706 344.4487
-5.3419189 34.796036 345.02808
-5.7732854 34.760529 345.63422
-1.9120851 35.104401 350.11478
-4.1215587 34.322342 343.78189
-4.9842153 34.25185 344.99991
-5.5441198 34.471203 345.71075
-5.5223494 34.186111 346.18546
1.0110375 35.027557 346.5253
-1.8847932 34.548492 350.11407
-4.0913982 33.772133 343.78174
-4.5227189 33.737381 344.39136
-4.9551535 33.70261 344.9996
-5.3875422 33.667946 345.60635
1.7228358 34.47781 346.47079
-4.0612531 33.221935 343.78143
-4.4936419 33.187538 344.39111
-4.5973425 33.156723 344.97144
-4.7010436 33.125912 345.55139
-5.2381616 32.962685 346.11844
1.6468092 33.886433 347.06058
-1.6356053 33.011192 342.51358
-2.4005883 32.973595 343.15845
-2.8338926 32.939388 343.77164
-3.8041372 32.643646 344.33374
-3.9078534 32.612701 344.91507
-4.6719666 32.575874 345.55112
-4.8813272 32.416046 346.09106
6.4805803 34.070404 346.34543
-2.0415626 32.325306 342.50507
-2.4739358 32.291546 343.11935
-2.9073014 32.257854 343.73245
-3.4442816 32.095154 344.30475
-3.878639 32.06168 344.91483
-4.3131032 32.028217 345.52332
5.7015944 33.361061 346.35938
2.9930661 32.952038 347.02527
2.2838326 32.740421 347.59744
-2.5472989 31.609802 343.08029
-2.9806948 31.576616 343.69318
-3.4140296 31.543446 344.30457
-3.9542089 31.479458 345.49557
5.7323813 32.794174 346.35901
-2.184346 31.058746 343.05017
-2.9504886 31.02441 343.69308
-3.3838997 30.991739 344.30441
-3.5932548 30.929583 345.46759
5.8919516 31.964209 346.24847
-1.821362 30.506598 343.01981
-2.5874746 30.473253 343.66336
-3.3546703 30.439899 344.30426
6.2725296 31.399014 346.22018
-2.2244754 29.920895 343.63373
-2.9927547 29.888493 344.27539
-3.4292178 29.856825 344.88583
4.7986603 30.693678 346.28964
-1.8614153 29.367437 343.604
-2.2988396 29.335979 344.21725
-2.7353485 29.304691 344.82892
-3.173841 29.273436 345.4393
-3.611342 29.242353 346.04813
-0.98150069 28.897982 343.56097
-2.2686181 28.782377 344.21716
-2.7051115 28.751493 344.82889
-3.143589 28.720739 345.43912
-3.5821733 28.690113 346.04794
-4.0227718 28.659424 346.65533
-1.5696367 28.226669 344.15857
-2.6758208 28.198149 344.82877
-3.1143746 28.167896 345.439
-3.9935422 28.107574 346.65524
-4.1032701 28.076429 347.23508
-1.3100786 27.638828 344.71396
-3.0014875 27.443983 345.36633
-3.2955279 27.456184 345.97983
-3.4041727 27.424854 346.56082
-3.5138395 27.393486 347.14148
-3.7283425 27.234587 347.68063
-2.0258648 26.501114 345.3548
-2.100235 25.819363 345.31384
-2.5418863 25.790989 345.92438
-2.8389482 25.803875 346.53796
-2.8719401 25.696505 347.66922
-3.7543337 25.544651 348.25952
-2.6163023 25.110041 345.88321
-2.7259541 25.078363 346.4649
-2.8356972 25.046879 347.04633
-2.9474089 25.015333 347.62738
0.10927935 24.98357 345.24844
-1.0385832 24.792738 345.85425
-3.0307455 24.429613 348.20779
4.4125352 25.311285 349.21347
-0.22753863 24.258629 345.21274
-1.0082088 24.236145 345.8541
-1.8946306 24.087128 346.45148
-2.3403256 24.060207 347.06064
-2.7860513 24.033516 347.66858
3.1675704 24.793486 348.72281
0.14089334 23.695868 345.18393
-0.64276761 23.674252 345.82617
-1.0884016 23.647799 346.43823
-2.3049901 23.310156 348.15582
0.50938642 23.131897 345.15518
-0.27529687 23.111326 345.79819
-0.72193795 23.085224 346.41077
-1.9544834 23.039042 347.65799
0.432322 22.541128 345.74158
-0.8747555 22.445734 346.39206
-1.1402646 22.50226 347.02197
-1.3655646 22.439014 348.18845
-1.4802364 22.407415 348.77121
0.46176574 21.981985 345.7417
-1.5566206 21.724012 348.72827
0.83140343 21.415655 345.71341
0.042599995 21.398146 346.35556
-0.40718451 21.373608 346.96799
0.75134838 20.823963 346.30008
-0.22183748 20.726248 346.92163
-1.1527085 20.507984 348.07681
-2.276015 20.500368 348.73596
1.4622331 20.247467 346.24417
-1.7967868 19.967575 348.12875
-2.2476397 19.944487 348.73584
1.3802098 19.654385 346.83145
-1.4311774 19.40205 348.1026
-2.2192795 19.388514 348.73566
1.4107676 19.093288 346.83142
-1.4017338 18.845016 348.10245
2.0112841 18.48008 347.36426
-1.0360632 18.277687 348.07635
-1.4899679 18.255962 348.68448
2.3841724 17.907152 347.33694
0.11503051 17.813251 348.04071
-1.4615772 17.698689 348.68442
1.728223 17.366232 347.39136
0.93005002 17.356188 348.03119
1.0862622 16.533953 347.91751
-0.38975146 16.548809 348.60709
3.4785316 16.663776 348.04617
3.8400853 16.356222 348.49603
4.6811757 15.797519 347.8519
1.1356045 15.503857 348.54672
4.7109408 15.230585 347.85196
3.8996298 15.224554 348.49594
3.7820745 15.192435 349.08585
3.7413995 13.842981 348.40701
0.6564365 13.677611 349.11334
4.1176147 13.26237 348.3804
1.0275093 13.101592 349.08759
1.3975904 12.524432 349.06183
1.5457802 11.99429 348.47641
4.0884686 11.530908 348.97
3.7696922 10.981379 348.99603
2.9626276 10.286469 348.98795
3.3736463 9.7444382 348.97693
4.553246 9.2455502 348.94376
4.0458903 8.6220608 348.94846
3.2313471 7.8931875 349.51889
2.914325 7.3480582 349.5444
4.5614872 6.8535261 348.89822
3.288847 6.7621102 349.51874
4.481319 6.1642504 348.85254
4.6702223 5.5013919 348.80408
3.4679041 5.5206876 349.46643
6.2806697 4.0500851 337.44489
5.5980754 4.1807232 338.15427
5.385602 4.027493 338.70334
5.28123 3.9933476 339.29474
4.7257609 3.9485626 340.51147
4.3827968 4.0571661 341.17908
4.1652265 3.9043584 341.72491
5.6298466 3.8987751 345.21484
4.9759946 3.8169277 345.81503
4.9686012 3.9043529 346.45013
4.8500843 3.8715982 347.03967
4.730576 3.8389401 347.62897
4.2622356 3.8300507 348.24506
3.2154088 3.69242 349.42648
-9.2311239 -7.2972169 345.19284
3.0588772 3.5405078 351.74451
1.5241504 3.6935935 353.05151
-0.24462086 3.6506903 354.27115
-0.93457019 3.7432938 354.91937
-1.4011499 3.6085005 355.46292
-1.5359483 3.577877 356.03958
-1.672761 3.5473211 356.61581
-2.0648448 3.3648987 357.13339
-2.4048684 3.5185189 357.79004
-3.1122434 3.3104925 358.30072
-3.5728161 3.2662792 358.87415
-3.8710263 3.3324604 359.48868
5.1232991 3.2827437 345.22549
5.0067816 3.2497282 345.8154
4.8893328 3.2168205 346.40503
3.8351431 3.1672342 348.22653
3.7135899 3.1348658 348.81366
3.5900073 3.1025684 349.40051
3.3408582 3.0383418 350.57306
2.5215344 3.0552444 351.20743
-12.875215 -7.7672257 349.45535
-13.226176 -7.7733898 350.61099
-13.502328 -7.9106693 351.10144
-13.364064 -7.7423587 351.78088
-13.503106 -7.7774982 352.3338
0.40485102 1.5433909 355.25137
-0.074919 1.538368 355.85031
-0.35060412 1.4770234 357.00623
-0.4893851 1.4465414 357.5835
-2.5033939 103.28503 339.64359
-2.6694758 102.9668 340.71127
-2.7899752 102.4894 339.93991
-3.0752666 102.1618 341.15494
-2.8490958 101.76801 339.96866
-3.0140643 101.45392 341.03351
-3.3199444 101.22727 342.30878
-2.9075296 101.04768 339.99677
-2.9838433 100.89419 341.00903
-3.2892051 100.6696 342.28366
-3.1045103 100.41571 340.23898
-3.0891972 100.20527 341.10852
-3.1211092 100.02334 342.04739
-2.8464167 99.927338 339.94714
-2.9533029 99.375519 341.81073
-2.5882161 99.437469 339.6553
-2.43713 99.357224 340.40265
-2.4068782 98.796677 340.37833
-2.3482161 98.556618 341.17871
-2.200731 98.476257 341.92548
2.4103792 99.312378 343.15384
-1.8106534 98.92543 337.94009
-2.4080386 97.836815 341.20688
-2.2765484 97.840439 342.00723
-2.3429253 97.608551 342.96472
2.0219045 98.566765 342.62265
1.9245495 98.413887 343.64536
-1.8693162 98.202217 337.96771
-2.1171291 97.744255 340.06165
-2.3778026 97.276886 341.1825
-2.2302566 97.197548 341.92938
-2.3126435 97.049789 342.94043
1.7900369 97.734177 343.78134
-1.8381338 97.638954 337.94257
-2.0077868 97.33033 339.01868
-2.1188388 96.784828 340.89114
-1.9714605 96.705719 341.63931
-1.8641613 96.228455 343.23907
1.5306836 97.063004 344.07727
-1.8991311 96.914841 337.97202
-1.9766959 96.768021 338.99353
-1.5970348 96.757515 339.47537
-2.3171623 96.156586 341.13379
-1.9418193 96.145325 341.61566
-1.2810124 95.975189 343.59436
1.1252617 96.194977 344.47754
-2.0972559 96.283722 338.21741
-1.9461849 96.205498 338.96912
-1.5659134 96.194939 339.45029
-2.2868195 95.596336 341.10944
-2.2306597 95.359314 341.90921
-2.1762702 95.122231 342.7085
-1.8043756 95.109993 343.19113
-1.6776462 95.11496 343.99115
-1.6074588 95.855324 337.65118
-2.0068314 95.483665 338.99786
-1.6273228 95.472755 339.47949
-1.7985173 95.16893 340.55029
-2.519424 94.575005 342.20291
-2.1466596 94.562943 342.68488
-1.7747804 94.550606 343.16748
-1.6320257 94.472328 343.91391
-2.066776 94.762093 339.02563
-1.6880913 94.750938 339.50793
-1.7680827 94.607361 340.52588
-2.4891117 94.015862 342.17859
-2.1163626 94.003586 342.66068
-1.744468 93.991158 343.14319
-1.6024609 93.913216 343.89044
-1.3936566 94.649879 338.35431
-1.5082948 94.111252 340.23367
-1.7752094 93.651115 341.35745
-2.0860195 93.444153 342.63638
-1.7147964 93.431564 343.11972
-1.5727893 93.353989 343.86688
-1.454471 93.926842 338.38278
-1.5344318 93.784531 339.40497
-1.248583 93.614059 339.94135
-1.7448206 93.090141 341.33307
-1.8275591 92.948967 342.34714
-1.314054 92.858879 343.57935
-1.74502 93.139259 338.68143
-2.053663 92.933876 339.97092
-2.672071 92.085388 342.35245
-2.0259593 92.325005 342.58859
-1.7137765 92.576073 338.65631
-2.3429916 92.150452 340.26697
