ply
format ascii 1.0
comment PCL generated
element vertex 1586
property float x
property float y
property float z
element camera 0
property float view_px
property float view_py
property float view_pz
property float x_axisx
property float x_axisy
property float x_axisz
property float y_axisx
property float y_axisy
property float y_axisz
property float z_axisx
property float z_axisy
property float z_axisz
property float focal
property float scalex
property float scaley
property float centerx
property float centery
property int viewportx
property int viewporty
property float k1
property float k2
end_header
7.1536808 58.763847 360.36139
8.7504129 62.774788 362.65704
9.1187239 62.765629 364.44922
7.9230971 58.581448 348.39853
6.19136 58.164333 349.02478
5.7395291 58.114532 349.64911
9.8896656 63.240654 351.37613
8.2827892 58.491169 352.55734
10.941979 63.406269 354.37683
5.361846 57.969257 353.82303
4.0882092 57.723404 354.43881
3.2780926 57.648018 355.07104
3.0584369 57.478687 355.62668
9.4689779 62.936806 357.3786
9.3560648 62.914192 357.98367
7.1772823 58.191704 360.36267
9.1526842 62.792149 362.7951
9.6488876 62.807793 363.98737
9.3385515 62.86256 364.61664
7.1320577 57.816978 348.4129
6.2187181 57.597988 349.02661
0.88920838 52.606415 349.50015
0.78509307 52.57935 350.09109
0.68015397 52.552155 350.68164
5.2775903 57.257942 353.78589
3.654757 56.989422 354.4205
2.8456759 56.915287 355.052
-0.65927309 52.171795 355.36823
-1.2334889 51.98307 355.92828
6.2897506 57.462193 360.36707
6.2045541 55.285812 347.79968
4.9282298 53.423027 347.85181
1.4116974 52.612766 349.67706
1.3076578 52.585995 350.26883
1.202642 52.559086 350.86026
1.0966494 52.532158 351.45145
3.679075 56.424889 354.42215
3.2190025 56.375782 355.03558
0.20632467 52.314426 356.16849
0.090277769 52.286873 356.7565
5.5684524 56.655052 360.33514
7.0314116 53.565754 346.71112
5.8965578 53.476452 347.397
3.835959 53.061966 348.04788
4.2089825 56.153309 350.30832
1.9271377 52.618706 349.8512
3.8932903 55.961105 351.4646
1.7181422 52.565521 351.03616
1.273049 52.518833 351.65176
3.7043548 55.860283 354.4238
3.2442811 55.811699 355.03726
2.7368851 52.552132 355.68707
1.2540903 52.444481 356.35678
0.72371042 52.43795 356.98642
5.3567228 56.087048 359.75342
7.2078309 53.550049 346.90887
7.1103115 54.748363 347.94769
4.3483639 53.067135 348.21695
2.538609 52.650257 349.42868
2.4355905 52.624016 350.02246
3.9195449 55.397228 351.4664
1.438341 52.504848 351.84818
3.7296495 55.295578 354.42551
3.2685068 55.247448 355.03897
3.5293214 52.737762 356.50992
2.3767326 52.649593 357.15802
6.2051821 55.710579 359.76855
491.8642 144.93466 189.38043
7.3731585 53.533588 347.10284
7.6511827 54.80172 348.12418
7.3861918 55.400887 348.96152
4.9538364 54.952526 349.6308
3.944869 54.833229 351.46832
1.9327557 52.510162 352.01822
1.8247323 52.483959 352.6105
4.1040807 54.753239 354.40842
3.2928245 54.683121 355.04068
4.0348234 52.745983 356.68906
3.2223878 52.678242 357.31894
2.4119344 52.610725 357.94562
6.23598 55.020016 359.1308
8.2295456 53.55917 347.23846
6.3250318 54.581512 348.97815
4.4215217 53.677502 349.43893
3.6460512 52.80032 349.80115
3.5421317 52.774712 350.39682
3.6467903 53.43821 351.21088
3.196629 53.392529 351.82916
2.8913994 52.503384 353.3291
4.5312481 52.75362 356.8652
4.4152756 52.727093 357.46048
5.554297 54.285721 358.52301
10.026209 53.91489 347.39703
8.8613729 53.824619 348.08206
5.4882894 53.058193 348.73199
5.0253735 53.41827 349.49591
4.9045196 53.797733 350.23294
4.8016205 53.772839 350.83087
4.3464408 53.726467 351.45038
3.4494045 53.112431 351.91165
3.7833881 53.654964 352.66418
4.1547198 53.622234 354.4119
3.7095511 53.168587 354.88644
5.2558961 52.755112 357.6174
501.5968 145.2916 188.71243
10.517437 53.918331 347.5542
10.287992 54.159977 348.2637
6.0772071 53.203236 348.927
5.6252313 53.15733 349.55106
5.1722021 53.111389 350.17352
4.7181811 53.06554 350.79449
4.1533637 52.877735 351.37509
3.6981828 52.831886 351.99286
3.6999311 52.948559 352.62732
4.0703354 52.914112 354.37408
3.6080902 52.867832 354.98801
5.4967475 52.884888 357.84622
8.8204298 43.655846 346.9996
7.8098993 43.643806 347.6868
8.2091217 43.589989 349.44247
7.7479296 43.551823 350.06866
4.7304268 43.113499 351.94562
5.8025479 43.080887 353.65076
3.7328365 43.013096 354.9603
8.1828032 42.972919 347.02136
8.3856325 43.76717 347.88168
9.0034943 43.879875 349.07635
8.6404381 43.529346 349.58841
8.3522091 43.623623 350.2468
4.9725566 42.823303 352.02686
5.364563 42.362362 353.63211
4.1950388 42.303349 354.28806
4.376873 43.096348 355.1449
9.8755569 44.080299 347.45251
8.997097 43.941395 350.50006
5.3206196 42.558945 351.50967
5.1521482 42.755257 352.18594
4.6869049 41.773357 353.67523
3.5203068 41.716148 354.32956
2.945787 41.54203 354.90024
5.0602584 43.069103 355.88324
7.4699578 41.716866 349.45938
9.441823 43.926819 350.65155
7.1195712 43.283222 351.21616
7.1063566 43.510708 352.49078
5.0638847 41.215809 353.65698
2.8621235 40.83976 354.86102
4.7196789 42.940586 356.04962
6.8823543 40.931213 347.63208
6.7784824 40.904877 348.23209
11.182371 43.99929 349.51971
9.8765545 43.911823 350.7998
7.5543199 43.267799 351.3663
6.5046153 43.168926 353.20679
4.2792006 40.492405 353.65887
3.0044594 40.301483 354.27115
2.5388503 40.266006 354.88239
5.5702119 43.031136 356.21298
5.0936656 42.994289 356.82495
7.2632751 40.371571 347.60812
6.8069134 40.336189 348.23465
11.983426 43.996212 349.64182
11.142817 43.946362 350.29474
7.8558931 42.369072 350.62558
7.3409319 42.419575 351.28156
4.2948685 39.886398 351.263
7.9577384 43.481358 352.78717
7.0240407 43.293282 353.39044
4.3065071 39.814983 353.02524
4.0321589 39.874058 353.66092
3.028748 39.736435 354.27341
2.5641599 39.701515 354.88452
6.4482222 43.168816 356.3848
5.5103431 42.980812 356.97635
5.3903394 42.95573 357.57236
6.9392323 39.793823 347.6373
11.290655 44.058418 350.49179
8.3345251 43.527534 351.14297
7.8631043 43.490959 351.7655
4.321249 39.320423 351.26538
7.5303125 43.417641 353.56891
4.3329353 39.248405 353.02744
3.5187695 39.205872 353.66287
3.0541351 39.171341 354.27548
6.9526296 43.294556 356.5676
6.8336482 43.269772 357.16623
5.7989759 42.942204 357.72089
5.7961521 38.955761 347.04199
9.2072926 43.547451 350.65604
8.3704948 43.499115 351.30051
4.6971636 38.761753 351.24478
3.8860474 38.720184 351.88483
4.358326 38.681602 353.02969
3.5440667 38.640171 353.66519
2.8901668 38.513123 354.25662
6.0754776 42.903782 358.46298
6.1750889 38.395943 347.01743
6.6785908 38.57608 349.44119
6.4586935 38.412933 349.99936
3.9123666 38.154499 351.88721
4.3846784 38.114834 353.03198
2.655056 37.789581 353.6254
-2.8826213 33.184158 353.34967
-5.2119584 32.880547 353.97067
-4.2694612 32.801704 355.61444
6.2024808 37.828396 347.02014
5.3985186 37.788567 347.67175
5.2925868 37.761776 348.26889
1.342461 33.723701 347.5986
6.3741965 37.707615 349.96109
0.67985159 33.634193 349.39267
3.9387016 37.58873 351.88962
4.4101152 37.547825 353.0343
3.1380856 37.366879 353.64859
-2.0367279 33.156178 353.52011
5.690125 37.162636 347.03256
5.0465207 37.038036 347.63892
1.6318231 33.716801 347.22101
1.5239116 33.688107 347.81097
6.4016371 37.138664 349.96359
1.1968956 33.602356 349.57877
3.9680319 36.914471 351.25702
3.8550355 36.887562 351.85089
4.4364681 36.980843 353.03659
3.629729 36.782257 353.61356
-5.1941285 32.813969 354.41824
5.3381419 36.412498 347.00031
4.8846111 36.380363 347.62378
2.4804661 33.686817 347.3725
2.0338767 33.655544 347.99179
6.429153 36.569534 349.96609
3.7713687 36.18679 351.81204
3.4273908 36.106007 353.59061
-4.2581592 32.814079 354.00443
-4.7081857 32.783901 354.60403
4.9130216 35.814449 347.62646
3.4829409 33.833668 347.58041
6.456624 36.000397 349.96863
3.7976727 35.621216 351.81445
-3.777297 32.783676 354.18713
-2.3950241 34.813156 356.62708
5.2899489 35.252636 347.60248
3.250715 33.750877 347.79532
6.3720036 35.295994 349.92978
5.9104605 35.264774 350.55154
2.9694312 33.658276 350.75406
3.8240383 35.05542 351.81686
4.1766229 34.982224 353.55338
-3.3054075 32.753376 354.36707
-4.0932603 32.722023 354.98727
-3.0315807 34.143578 356.04129
5.6670313 34.68964 347.57843
4.8627977 34.655346 348.22778
5.5850816 34.584846 349.94028
3.9643762 34.516609 351.22589
3.1548619 34.482712 351.86435
-3.5102832 32.719456 354.58432
-3.3109689 33.087006 355.29239
6.0450768 34.125473 347.55429
5.1803446 33.902031 348.13824
5.1507463 33.87981 349.92584
3.3972497 33.733509 351.18967
-2.3958976 32.797535 355.34238
-3.8685892 32.763241 355.99725
4.0941858 23.853912 349.93048
3.0740848 23.842957 350.58551
-1.1740068 23.380648 354.19443
-1.9700482 23.210913 354.75632
-1.8846802 23.439709 355.42413
-2.3267932 23.028345 355.87366
5.3760791 24.083014 349.55685
4.9100442 24.061979 350.17569
3.5718539 23.70676 350.71964
-0.70372403 22.91585 354.20877
-1.3211094 23.420879 355.01593
5.8272681 24.034798 349.72379
4.0664706 22.459858 349.8407
3.8977034 23.223721 350.73267
-1.1162841 22.104683 354.13931
-1.0612245 22.727285 354.9549
-2.0470512 22.066299 355.34213
4.093874 21.893417 349.8436
4.6222205 23.959461 351.17029
-1.3133495 21.446655 354.11514
-0.12167024 23.322786 355.33432
-0.96776944 22.396906 355.62082
-0.72028482 23.277214 356.51883
-0.70042145 21.382353 356.99435
4.6930676 23.919523 351.35297
-0.38562399 20.966923 354.103
2.7231367 23.386124 355.4277
0.34875885 23.335741 356.10397
-0.5341655 22.058844 356.26755
-1.0195278 20.830294 357.01456
6.8506265 24.13542 350.90231
5.6496153 23.951916 351.50629
-0.36038229 20.405905 354.10553
3.3591862 23.442749 355.61542
1.1156828 23.46014 356.30612
0.46409532 21.868052 356.35184
-0.8671146 20.296574 356.43533
7.7365365 24.108974 350.43518
3.8268411 20.2033 349.87759
1.2524681 20.059002 354.11264
3.8591878 23.529657 355.81311
2.21806 23.402058 356.43091
0.67981499 23.405788 357.0809
-1.2916948 19.618916 356.41132
8.5024614 24.056469 350.56287
3.6655674 19.555681 349.86011
2.3213522 19.477839 350.50394
1.1861632 19.268435 353.44119
0.031202568 19.273048 354.08975
4.3470259 23.617567 356.00571
-0.22010328 19.218237 355.25632
2.3535171 23.308058 357.7619
3.3146985 18.827553 349.82214
2.1599965 18.832825 350.48618
0.86713356 18.716335 353.46542
0.39866203 18.700043 354.07144
0.14639501 18.645185 355.23898
-0.88118845 18.38743 355.771
2.6495953 18.285324 349.87579
2.1863279 18.268847 350.48911
0.54805601 18.165243 353.48972
-0.4764936 17.908937 354.0274
-0.94298327 17.89344 354.63016
-1.411533 17.877991 355.23154
3.0221584 17.708641 349.85345
2.2125673 17.704861 350.4921
0.015131405 17.363136 353.42545
-0.45236593 17.347988 354.02991
-1.600563 17.358 354.67346
3.0484312 17.143457 349.85651
2.2388988 17.140785 350.49506
0.040328346 16.801619 353.42807
-1.1098857 16.81303 354.07449
-1.7601771 16.719479 354.65317
3.074765 16.578178 349.85956
1.9208893 16.589781 350.52258
-0.96054155 16.280403 353.49564
-2.1045692 16.002735 354.60989
3.1021361 16.01293 349.86258
-0.59405661 15.706361 353.47681
-1.0615574 15.692839 354.07974
-2.0804923 15.444189 354.6124
3.1284854 15.447554 349.86569
2.6631222 15.433796 350.47946
-0.62939823 15.095027 352.87506
-1.0177199 15.035604 353.4567
-1.4049736 14.976329 354.03702
3.0463693 14.757065 349.82492
2.0102551 14.703778 350.4538
-0.63344431 14.363719 352.81122
-1.0990399 14.351253 353.41489
-1.5646664 14.338902 354.01691
2.9632304 14.066843 349.78409
2.1535039 14.069665 350.42245
-0.94974232 13.818921 352.83636
-1.0748838 13.791304 353.41754
2.6442406 13.5177 349.81281
1.8353661 13.521569 350.45029
-0.58308506 13.242693 352.81662
-1.0497664 13.231388 353.42017
3.0169506 12.936417 349.79025
2.2060905 12.941303 350.42847
-0.55894297 12.68214 352.81937
3.0432539 12.371036 349.7934
2.2324071 12.377024 350.43158
0.83176559 12.344708 352.26016
-0.71865189 12.045206 352.79977
3.0696492 11.805556 349.79648
1.5396373 11.677485 350.41721
1.0929992 11.64069 352.19516
-0.16815394 11.542964 352.80249
1.8436109 11.048113 349.78799
1.3790483 11.038107 350.39902
0.66823196 10.972676 352.17642
3.1233251 10.674432 349.8028
0.34994811 10.428993 352.20255
2.8115869 9.9727821 349.76797
1.4316152 9.9120464 350.40512
0.6469568 9.7660351 352.15216
2.266942 9.3372908 349.77164
1.4578227 9.3488665 350.4082
1.0864902 9.2650604 352.16177
2.2932889 8.7729635 349.77478
1.4830996 8.7855673 350.41135
1.1117213 8.7018623 352.16461
2.6661291 8.1876507 349.75208
1.5093379 8.2222567 350.4144
2.1717632 8.0754414 352.09708
2.6924319 7.6226435 349.75528
1.5346608 7.6588402 350.41754
1.6320486 7.5815258 351.5625
2.3722396 7.0795474 349.78439
1.6034057 7.007164 350.38239
0.82658684 6.8999133 351.55331
2.744107 6.4924664 349.76175
0.77915007 6.2564383 351.52606
2.7704406 5.9272523 349.76498
2.5722501 5.2747903 349.74252
1.9249157 4.4118886 349.6521
1.3401541 4.4799299 350.29807
0.98098749 4.5962815 350.95206
4.6025076 3.0913451 337.78796
4.0808792 3.133791 338.44189
3.7127173 3.0809445 339.04199
3.6088066 3.0507932 339.63126
2.6058857 3.0115755 341.46548
2.4968622 2.981914 342.05267
2.1963489 3.0086563 342.6756
4.0955215 2.9803343 346.11053
3.1774759 2.883513 346.7128
2.7941279 2.8321838 347.30402
2.2510383 2.8776212 347.94254
2.2385876 2.9684761 348.57285
2.1165302 2.9401684 349.15808
-10.368142 -7.7781725 345.77225
-10.496584 -7.8113613 346.3327
0.016149562 2.7520757 353.28894
-2.2939265 2.6330152 354.48474
-3.0161762 2.6660042 355.10208
-2.7175846 2.8964241 355.77188
-3.5506897 2.5676382 356.23962
-4.082799 2.4191306 356.77182
-4.3128891 2.4509454 357.37012
-4.0465789 2.7234211 358.05746
-4.2896161 2.5781722 358.58212
-4.8752866 2.5140691 359.14514
3.6635475 2.5243063 344.99722
3.4389036 2.3763247 345.54129
3.4315512 2.4663496 346.17334
3.0961554 2.1994164 346.67178
2.6334698 2.1969182 347.2872
1.9265621 2.1377141 349.07101
1.8034211 2.1094308 349.65536
0.86762381 2.1062405 350.87317
0.61329824 2.0506113 352.03714
0.48409811 2.0229466 352.61868
-13.657276 -8.0651665 350.10071
-14.089679 -8.0658903 350.68597
-15.374372 -8.1594963 353.50464
3.8192458 1.6948835 344.88214
2.6701882 1.7459064 345.56122
-0.80618757 1.5792962 354.47385
-1.2684727 0.90371072 355.37238
-1.8691213 1.1687388 356.08554
-2.1141117 1.023424 356.61337
-2.2515235 0.99676287 357.18857
-3.0105724 0.94505656 358.92865
12.114182 108.4632 352.10229
13.532432 108.40293 354.11591
11.888167 107.81365 352.34781
13.051115 107.67398 354.6232
11.209423 107.01173 352.14374
11.135661 106.27435 352.17825
10.994077 106.10621 353.20459
11.444077 106.25846 353.65439
11.55247 105.90736 355.23096
10.911485 105.62889 352.4231
11.017532 105.53792 353.18707
11.12303 105.447 353.94907
11.226012 105.355 354.71143
10.934988 105.0596 352.40552
11.041782 104.9687 353.1687
11.146532 104.87769 353.93149
11.249528 104.78671 354.69388
10.959284 104.49039 352.38718
11.065283 104.40041 353.15118
11.418065 104.38458 353.65317
11.273042 104.21942 354.67636
12.221254 104.2617 355.42126
10.834922 103.78596 352.49203
10.99106 103.66503 353.18546
11.44233 103.81535 353.63489
11.198725 103.48507 354.71066
12.145918 103.52629 355.45593
11.255531 103.42512 352.08813
11.372656 102.82483 354.48425
12.070487 102.79185 355.49042
11.528183 102.92912 351.80655
11.147829 102.18442 354.72739
12.093957 102.22359 355.47284
8.5129566 100.13522 360.60596
8.591589 100.13226 361.40491
10.256702 101.82463 352.18188
10.709561 101.97407 352.63007
11.062482 101.95824 353.1322
11.717253 101.84395 354.16232
12.117504 101.65527 355.45535
8.7776194 99.644547 360.33792
8.0523138 99.189201 361.88522
8.2414703 99.263382 362.58307
9.6801453 101.20001 351.92548
9.7893286 101.11221 352.6871
11.443158 101.12001 354.43164
12.140366 101.08598 355.43848
8.4618206 99.102974 359.82242
8.0751371 98.879166 361.07324
7.9774804 98.469063 361.91843
8.0714474 98.382401 362.66403
9.4590683 100.56067 352.16943
10.166389 100.52921 353.16956
10.518315 100.51338 353.67065
11.218466 100.48055 354.67484
11.914758 100.44654 355.68085
7.9046731 98.245056 360.35782
7.9045062 97.997307 361.15506
7.9997396 97.911316 361.90179
8.0930643 97.824989 362.64813
9.7286873 100.06355 351.8891
10.189996 99.960922 353.1521
10.541862 99.945099 353.65317
10.892782 99.92926 354.15472
7.8305264 97.524681 360.39044
7.9269032 97.439079 361.13843
8.0219984 97.353508 361.88519
9.5076389 99.425423 352.13318
10.214303 99.393616 353.134
10.566155 99.377281 353.63504
10.916407 99.360649 354.1373
11.265635 99.343918 354.64001
11.613949 99.326805 355.1431
7.6120477 97.145767 359.82657
7.6125951 96.899399 360.62445
7.8038497 96.72937 362.11761
10.714194 99.464722 350.95731
9.7869692 98.677994 352.6676
10.13963 98.661728 353.16809
10.490735 98.645256 353.66974
10.840788 98.628448 354.17188
11.190643 98.611526 354.67368
11.290792 98.525223 355.4364
7.6822681 96.554985 359.74271
7.4913545 96.190948 361.60419
10.283297 98.745659 350.49002
10.344045 98.692467 351.32547
10.415863 97.913551 353.7037
10.868077 97.811241 354.96765
7.3210649 95.801552 360.0929
7.5138416 95.633507 361.58768
7.8479538 95.614449 362.08533
8.5131578 95.575714 363.08182
9.3606567 97.890053 350.55212
9.7172527 97.87439 351.05225
10.072232 97.858482 351.5535
10.180342 97.774086 352.31711
11.138433 97.311523 354.69055
7.3428521 95.242966 360.07712
7.2010121 95.094971 361.07391
7.9151468 94.800575 361.91833
8.1055794 94.877113 362.61612
8.1969166 94.793114 363.36221
9.7416706 97.305481 351.03409
10.096604 97.289421 351.53537
10.204728 97.205444 352.29901
10.211962 96.95797 353.11441
10.217821 96.710709 353.92862
10.66901 96.609207 355.19165
7.3653107 94.684532 360.06061
7.7023206 94.665649 360.5582
7.6978173 94.179115 362.15039
8.0300236 94.159454 362.64893
8.1213284 94.076096 363.3949
9.7661037 96.736351 351.01602
10.137135 96.226906 353.14838
10.487386 96.209885 353.65063
10.446518 95.975616 355.43326
7.7194338 93.621834 362.13452
8.0523272 93.602112 362.63232
7.9037528 93.456154 363.62546
10.036816 96.2341 350.73358
10.146127 96.151031 351.49844
10.024393 95.264519 354.96527
7.6494083 93.388512 360.57465
7.745945 93.306633 361.32162
7.7418141 93.064362 362.11804
7.8345671 92.982132 362.86404
10.201686 95.408516 351.37494
10.178843 95.336319 352.29688
10.185157 95.090889 353.11288
10.535378 95.073677 353.61514
10.392549 94.92524 354.63736
7.0963011 93.027527 359.51254
8.8330488 93.644455 358.65112
7.0968685 92.546082 361.10574
7.4310727 92.526627 361.60342
7.7642703 92.506935 362.10153
7.6173244 92.363297 363.09503
10.241858 94.752373 351.30368
10.104032 94.605034 352.33087
10.209512 94.522865 353.09488
10.559749 94.505562 353.59702
10.416199 94.358078 354.62012
7.1188364 92.468796 359.49612
9.2425385 93.048294 358.17636
7.1192789 91.988693 361.08926
7.4527054 91.96917 361.58765
7.7859941 91.949478 362.08575
7.590229 91.727348 363.10349
10.620451 94.165878 351.78741
10.480059 94.019257 352.81488
10.338171 93.872871 353.8396
10.143791 93.532341 354.84387
7.1414022 91.910057 359.47968
7.3814816 91.731941 360.02621
7.3805804 91.492279 360.82324
7.4752226 91.411636 361.57123
7.8084049 91.391808 362.06924
8.1398335 91.371727 362.56836
10.518765 93.36351 352.74496
10.899427 93.172157 353.14255
10.019731 92.836716 354.94669
8.8039255 92.039581 357.84686
8.4631186 91.577156 358.95355
7.4031754 90.934235 360.80679
7.4977098 90.853973 361.55475
7.8301444 90.834129 362.0535
10.631624 92.800346 353.54428
10.04332 92.270226 354.92941
8.6967039 91.264297 357.89539
8.4857655 91.016022 358.93707
7.664526 90.436127 360.54065
7.7594566 90.356277 361.28906
7.5628128 90.025368 362.26669
10.506042 91.989532 353.60324
8.1702414 90.473991 358.42032
7.9289346 90.175323 359.47394
7.6221237 89.772018 360.55609
7.4121375 89.527885 361.5864
10.234685 91.278633 353.87189
8.3351736 90.051872 357.39584
8.4344664 89.972855 358.14975
7.8533039 89.456535 359.5065
7.9491329 89.37767 360.2572
10.013282 90.649536 354.11487
8.217 89.351738 358.38593
7.7321935 88.759644 360.4913
10.923626 90.392616 353.19287
9.0643148 89.364311 356.75058
7.9004774 88.573051 358.67188
7.9976168 88.495049 359.42386
7.9950914 88.258835 360.2236
8.541029 88.974869 354.71667
7.8204474 88.561462 356.29498
8.4055786 88.364922 357.34424
8.7455959 88.345543 357.84476
7.4434867 87.661629 359.95831
7.6322546 87.50663 361.45703
7.619339 87.037056 363.04782
7.4023938 87.859352 355.82867
7.7453856 87.8405 356.32791
4.3743052 86.397667 360.54498
8.5275183 87.725082 358.08176
7.5593224 87.035522 359.80756
7.4580336 86.63414 361.53738
7.3115392 86.5009 362.53345
7.4030757 86.42408 363.27866
7.7695765 87.278061 356.31003
4.3976097 85.843399 360.52811
8.4038658 87.038551 358.1828
7.9671378 86.656342 359.42346
7.2419548 86.020454 361.76978
7.3340249 85.944061 362.517
7.6636696 85.923256 363.01572
7.8369656 86.916039 355.41791
7.7930961 86.715576 356.29291
4.6546912 85.343704 360.26328
8.4754505 86.677025 357.29346
8.1336079 86.22834 358.40137
7.990531 86.096024 359.40637
7.1706944 85.538887 361.00583
7.2645478 85.463104 361.75342
7.356617 85.387138 362.50067
7.6854534 85.366241 363.00006
7.7142324 86.228355 355.5199
7.8167224 86.152977 356.27582
8.7407703 86.170753 357.02081
8.1570339 85.667068 358.38425
7.9135704 85.378456 359.43918
7.193274 84.980957 360.98947
7.2871265 84.905708 361.73709
9.2511234 86.604378 353.21609
7.7385459 85.665321 355.50208
7.8403034 85.590302 356.25876
4.9351273 84.287346 359.98154
8.7643833 85.607376 357.00366
7.2158532 84.422905 360.97318
7.5476031 84.402321 361.4725
7.6393652 84.327271 362.22089
8.4346695 85.535576 353.97153
8.390995 85.336792 354.85098
7.7646146 84.870171 356.2912
3.9299941 82.911087 362.58066
4.1627722 82.736511 363.12173
7.6159811 83.816124 360.50525
7.5047226 83.740479 361.48767
7.9009418 83.823227 361.95599
9.3346586 85.260956 353.05365
8.0269947 84.593666 355.21036
3.1957819 82.246132 361.62421
3.5267987 82.225754 362.11731
3.856107 82.205139 362.61151
4.1851106 82.184464 363.10556
7.9710155 83.236282 360.98892
9.7067966 84.674538 353.53812
2.9829638 81.86776 361.06729
3.2188983 81.694237 361.60739
3.5492289 81.673683 362.10117
3.8785522 81.653084 362.59543
3.9747169 81.58123 363.33438
2.9101436 81.162575 361.09787
3.241374 81.142197 361.59125
3.5716739 81.121635 362.08508
3.9010286 81.100861 362.57928
3.9971156 81.029488 363.31827
7.3955827 83.398178 352.53925
7.7436399 83.379585 353.03922
3.1923051 80.935516 360.02963
2.933306 80.610504 361.08109
3.2645214 80.590118 361.57443
3.594867 80.569466 362.06827
3.924176 80.548683 362.56253
4.0195146 80.477768 363.30219
6.3942657 82.432503 352.64322
6.7420797 82.413849 353.14172
7.0890846 82.394928 353.64063
3.1514254 80.280182 360.04437
2.9564991 80.058395 361.0643
3.2871044 80.037849 361.55838
3.6173284 80.017128 362.05222
3.9466372 79.996323 362.54636
6.0699143 81.887161 352.12762
6.4187493 81.868652 352.62558
6.7666402 81.849808 353.12402
7.113523 81.83091 353.62296
2.8783138 79.575638 360.30753
2.9790668 79.506142 361.04828
3.3103435 79.485558 361.54166
3.6398656 79.464767 362.03613
3.9691744 79.443863 362.53036
6.3337336 81.375069 351.84903
6.7918558 81.285805 353.10562
3.1323378 79.071426 360.04358
3.2334714 79.002342 360.78482
3.6631508 78.912376 362.01935
5.7828474 80.553131 352.40121
6.7165174 80.566078 353.13846
3.619132 78.614441 359.53024
3.4879391 78.497444 360.52127
9.7733603 80.246063 358.51099
5.9456253 79.884949 352.17468
6.6410403 79.846748 353.1712
7.8767924 80.099266 354.5704
3.7438126 77.991699 360.25623
3.8426259 77.92318 360.99936
3.9409964 77.854713 361.74063
9.7174492 79.666206 357.68292
9.8109131 79.595062 358.44165
5.8757668 77.281677 366.2933
6.6482992 79.73143 351.53357
8.0434818 79.204025 355.15338
3.9990015 77.484749 359.99182
3.8659441 77.369499 360.98264
4.0984139 77.19648 361.52487
9.7411404 79.101616 357.66583
9.7322941 78.875237 358.47403
5.8114691 76.798431 365.53738
5.6628466 76.683067 366.52011
6.3809295 78.926491 351.75668
6.3439169 78.738205 352.63632
6.6908169 78.718803 353.13516
7.1369758 78.854286 353.58417
7.4813581 78.834625 354.08478
7.7250023 78.659668 354.63507
7.5174165 78.594185 355.75339
4.8209367 77.223251 359.17905
4.3545303 76.909119 360.47067
9.0891237 78.578529 356.64221
8.7406654 78.149399 357.75479
5.5116677 76.268013 365.0242
5.2676673 76.00267 366.05228
5.0206761 75.737091 367.07883
6.4975786 78.29084 351.59909
6.3692245 78.174118 352.61795
6.7160482 78.154709 353.11676
7.4062018 78.115326 354.11646
7.7495627 78.095322 354.6174
7.8514743 78.026672 355.37604
4.7458658 76.51432 359.21005
4.6114779 76.400558 360.20511
8.5631275 77.813812 357.16934
4.5476937 75.344177 365.09052
4.9672856 75.472939 365.54135
4.9570179 75.254265 366.32495
5.0422635 75.186584 367.06335
6.3945022 77.610046 352.59964
6.7406702 77.590492 353.09915
7.0865626 77.570824 353.59839
7.4308085 77.550972 354.09879
7.7741389 77.530922 354.59967
7.8760343 77.462631 355.35834
4.6348915 75.845062 360.18839
8.7929602 77.246254 356.91412
4.5701222 74.79274 365.07437
4.8909049 74.770386 365.57141
4.5134501 74.614494 366.79245
6.0719957 77.065292 352.08298
5.9439268 76.950867 353.09949
7.1111846 77.006386 353.58075
7.4554152 76.986443 354.08118
4.7927122 75.401321 359.17639
4.5918951 74.241234 365.05902
4.6803279 74.174858 365.79788
4.3929281 73.949791 366.8869
5.8601384 76.454094 352.32382
5.9685469 76.387527 353.08194
6.3138752 76.367897 353.58063
7.8232613 76.401733 354.56439
7.6840081 76.287369 355.58124
4.5830784 74.799805 359.40884
9.6691608 76.413651 356.06036
4.9543986 74.100899 363.96707
4.9899578 73.84848 364.68835
4.7020688 73.623734 365.78256
5.7389493 75.772675 352.42624
5.8935375 75.670937 353.11392
6.238729 75.651093 353.6124
6.5822268 75.631042 354.11209
6.9254355 75.610909 354.61151
8.0875597 75.66259 355.09875
4.8397732 74.287949 359.14285
8.4256191 75.420761 356.40887
4.6360364 73.138123 365.02762
4.7244816 73.072594 365.76645
5.8184819 74.954659 353.14581
6.163444 74.934677 353.64417
6.5068669 74.914452 354.14371
6.8492517 74.894073 354.64368
5.0984383 73.775139 358.87451
10.20428 75.374001 355.50931
5.4666209 73.08091 363.44534
4.6577787 72.586319 365.01227
4.4156375 72.329399 366.03845
6.1735196 74.807732 352.00998
5.8437419 74.391525 353.12759
6.1880336 74.371437 353.62665
6.5314407 74.351227 354.12616
6.8737798 74.330727 354.62616
5.1220388 73.217644 358.8577
9.1601734 74.690605 355.76199
5.3157139 73.087883 360.35461
5.1560144 72.333916 363.72095
4.9127607 72.07666 364.75302
5.0010066 72.011902 365.49313
5.8606405 74.045563 352.30185
5.8683763 73.8283 353.11002
6.2133851 73.808167 353.60837
6.5560608 73.787788 354.10858
6.6602988 73.722931 354.86557
4.6766033 72.574265 359.34274
4.8705502 72.445892 360.83569
10.860261 74.093399 356.51932
4.8460002 71.588364 363.99582
4.9352975 71.524216 364.73703
5.0227799 71.46003 365.47772
6.022543 73.373009 352.07422
5.8937283 73.26503 353.09183
6.2380509 73.244713 353.59088
6.581336 73.224373 354.09036
6.9230657 73.203781 354.59103
4.3677793 72.039063 358.82883
4.6009479 71.867332 359.37329
4.5994754 71.653404 360.16718
4.6961274 71.589798 360.91272
10.98964 73.364731 356.31091
4.8685994 71.035439 363.97977
5.1902828 71.012756 364.47772
5.5110507 70.990059 364.97607
8.3647528 73.993736 348.93597
6.156558 72.745049 352.81451
6.2633729 72.681229 353.5726
6.6060481 72.660759 354.07278
4.4104967 71.736649 357.11563
4.6255021 71.524338 358.56082
4.6229963 71.097595 360.15048
4.7196622 71.034508 360.896
5.5312858 70.700142 363.3382
5.5336051 70.436897 364.96002
8.2884312 73.269356 348.96899
7.6742463 73.072678 350.52805
6.4194198 72.223984 352.53711
6.2881155 72.117691 353.55518
4.4470744 71.092278 357.04581
4.5483627 71.029694 357.79593
4.3158293 70.775848 358.84277
4.5487847 70.604271 359.38715
4.6465178 70.541687 360.13376
4.742435 70.479065 360.87994
5.3798118 70.00956 363.45804
5.7023497 69.9869 363.95685
5.5561595 69.883743 364.94394
7.4882512 72.414749 349.79605
7.7121601 72.416885 350.4559
6.683032 71.701744 352.25894
6.7893424 71.638748 353.0195
6.6561131 71.533325 354.03717
4.4707832 70.533989 357.02908
4.2399411 70.281433 358.07779
4.2402496 70.069489 358.8735
4.5723677 70.04789 359.37039
4.6701155 69.985794 360.11707
4.7659402 69.923576 360.86334
5.9723659 69.68515 362.90256
5.7250285 69.432564 363.94077
5.3445239 69.290932 365.17224
7.0616355 71.713379 349.32709
7.4123363 71.693405 349.82825
7.5217738 71.63063 350.59317
6.8140569 71.073807 353.00198
6.9192061 71.011307 353.76129
4.7291532 70.016113 356.75876
4.5965118 69.913933 357.7619
4.2645197 69.513016 358.85608
4.5959821 69.49131 359.35373
4.9271703 69.46946 359.8511
5.568861 69.00219 362.43488
5.6591611 68.940323 363.18005
5.5131655 68.839081 364.17023
5.5999875 68.777008 364.9133
7.4380193 71.125023 349.81003
7.5480962 71.062813 350.57422
7.6557031 71.000374 351.33871
6.9446373 70.446815 353.7431
4.7106485 69.283012 357.60779
4.5214233 68.995941 358.58856
4.6202674 68.934761 359.33633
4.9507384 68.912857 359.83447
5.5916181 68.446854 362.41879
5.6811848 68.38533 363.1647
5.7696385 68.323723 363.90939
6.0903769 68.300766 364.40915
6.41084 68.277718 364.90857
7.3538842 70.618355 349.02499
7.4644194 70.556602 349.79105
7.5737939 70.494736 350.55594
7.6806521 70.432777 351.3212
4.4451275 68.499336 357.82291
4.545115 68.438744 358.57187
4.6439734 68.378067 359.3197
5.6143298 67.891289 362.40283
5.7038956 67.830276 363.14865
6.3479042 67.784378 364.14783
6.1981363 67.684944 365.13733
7.6198578 70.090492 348.74182
7.4901485 69.987907 349.77286
7.5995069 69.926643 350.53778
7.7063336 69.865097 351.30304
7.5756741 69.336792 353.95035
5.0383811 68.168488 357.25232
4.3367968 67.843147 358.80466
5.9726419 67.522751 362.09274
5.9613647 67.31295 362.8858
6.3706465 67.229225 364.13177
7.9978924 69.500603 349.22476
7.8657393 69.398933 350.25623
7.7320457 69.297302 351.28485
8.0807304 68.851173 353.41376
4.1272712 67.248489 359.03906
5.6598907 66.780014 362.37076
5.9841228 66.757195 362.86972
5.9235487 66.599701 364.60626
8.0237312 68.930725 349.2066
7.8648343 68.245155 353.65662
4.2848353 66.788567 358.02301
4.1516328 66.692123 359.02173
6.0069265 66.201462 362.85373
5.859838 66.105026 363.84604
5.8452754 65.897408 364.63602
8.1590319 68.300598 349.95496
8.4028711 68.127907 350.50964
7.786942 67.528191 353.68854
4.1644888 66.12001 358.12146
4.1863003 66.049141 358.95297
4.7794375 65.906227 359.98007
6.086206 65.815834 361.97717
6.0290594 65.64547 362.83841
5.7669401 65.195427 364.66568
7.844656 67.329956 351.06754
4.1274257 65.996262 355.68954
4.2311215 65.319405 358.83252
4.5615478 65.297104 359.33051
4.8915768 65.274841 359.82816
5.8730149 65.206886 361.3266
5.9633393 65.148239 362.07465
6.0518332 65.089531 362.82245
5.9047403 64.995079 363.81482
6.1121459 66.710602 350.33218
3.8189025 65.252815 355.97446
3.9227142 65.195236 356.72449
6.2334428 64.833687 361.01407
5.986938 64.591743 362.05804
6.07476 64.533394 362.80652
6.0164647 64.365211 363.66537
5.7990208 65.957069 350.62576
5.3339987 65.676216 351.95728
3.611253 64.658737 356.21069
3.9472623 64.637085 356.70721
4.2806368 64.410271 358.00262
4.3800521 64.353172 358.75128
4.7097917 64.330849 359.25006
4.8057442 64.273369 359.99805
6.3011551 64.238029 360.93027
6.0098352 64.035095 362.04205
5.7625322 63.795555 363.08252
5.7226052 65.241753 350.6579
3.7639782 64.192009 355.18811
3.6365335 64.100563 356.19278
6.1784272 63.569946 361.02792
6.2677722 63.512581 361.77795
5.785305 63.23999 363.06659
5.5122242 64.64016 350.90088
5.8576779 64.619064 351.40094
3.7893374 63.632713 355.17014
3.6611586 63.542198 356.17554
3.7643712 63.486187 356.92517
4.6635427 63.476284 357.66931
6.436657 63.04599 360.7626
6.2907782 62.955254 361.76199
6.6142626 62.932125 362.26303
6.0120797 64.145355 350.35855
5.8840718 64.053612 351.38217
6.2285795 64.032341 351.88275
3.582144 63.039421 355.40695
3.3976059 62.765812 356.39029
4.5871983 62.770729 357.69925
4.9186621 62.748337 358.19836
5.2492862 62.725899 358.69791
5.579515 62.703369 359.19714
6.8428369 62.630634 360.3815
6.3136463 62.397808 361.74594
6.6372533 62.374603 362.24704
6.2752686 63.613575 350.07803
5.9098101 63.488094 351.36423
6.254333 63.466759 351.86478
3.8394458 62.513767 355.13504
3.2784457 62.099224 356.48868
4.5107312 62.065475 357.72919
4.8421645 62.042984 358.22812
5.5018582 61.997749 359.22733
6.4833593 61.928978 360.72989
6.5730681 61.873119 361.48029
6.6601677 61.817059 362.23102
6.1734715 62.956642 351.08414
3.8642261 61.954132 355.11795
3.303771 61.541534 356.47083
4.6334705 61.452244 358.46228
6.1807456 61.393406 360.21216
6.5071301 61.370388 360.7132
6.5960898 61.314968 361.46436
6.6831889 61.259411 362.21512
6.9024997 61.089302 362.76303
7.0118842 62.844902 349.41251
6.4370737 62.424084 350.80396
3.5523405 61.416294 354.60223
3.5563793 61.215912 355.40237
3.3284404 60.983791 356.4537
4.5592031 60.948654 357.6954
4.6573167 60.894257 358.44574
5.549552 60.880676 359.19412
6.4400496 60.866653 359.94492
6.5302148 60.811642 360.69727
6.8555455 60.78849 361.1987
6.9399314 61.923653 350.26001
3.5778532 60.856598 354.58444
3.2493222 60.479458 355.68628
3.3530643 60.425945 356.43652
4.2514791 60.41254 357.17978
4.5837827 60.390091 357.67822
4.68191 60.336208 358.42859
6.4638524 60.307365 359.92825
6.5539703 60.252846 360.6806
6.8786001 60.229633 361.18265
6.662385 60.046703 362.21243
6.9658122 61.355553 350.242
3.2748017 59.920956 355.66849
3.6093168 59.898689 356.16632
3.9435422 59.876457 356.66385
4.276166 59.853893 357.16257
4.6084843 59.831444 357.66095
4.939033 59.808807 358.16055
6.4877014 59.747978 359.91159
6.5770559 59.693905 360.66467
6.563622 59.494003 361.46179
6.4592481 59.371017 362.3934
7.230917 60.819584 349.96024
4.0939517 59.798351 354.03741
3.7637079 59.423264 355.14191
3.6347356 59.340199 356.14844
3.9682288 59.317711 356.6467
4.3008523 59.29525 357.14542
4.6330643 59.272713 357.6438
4.9637194 59.249966 358.14328
6.5115352 59.188484 359.89496
6.6008878 59.135021 360.6481
6.0143695 58.730057 361.9888
7.2575164 60.250744 349.9415
7.1248107 60.165554 350.9707
3.7892051 58.863663 355.12408
3.6594679 58.781464 356.13132
3.9929919 58.758965 356.62958
4.3262258 58.73645 357.12747
4.6570797 58.713818 357.62732
4.9876895 58.691067 358.12692
6.4435606 58.681873 359.12567
6.7709365 58.658733 359.62762
6.6247821 58.57592 360.63147
5.8032556 58.143719 362.22086
6.5940881 59.524677 349.73489
7.7536612 59.832996 349.44809
6.8084369 59.419151 351.2645
3.5822625 58.274475 355.36139
3.6849329 58.222649 356.11356
4.0183954 58.200161 356.61169
4.3509431 58.17762 357.11038
4.6818275 58.154869 357.61014
5.0123463 58.132137 358.10965
6.468204 58.121819 359.10831
6.5586081 58.069252 359.86252
6.3547521 57.803471 360.84293
6.2953854 57.644436 361.70844
6.0422378 58.748676 350.29202
3.5025418 57.76619 354.5918
3.3752568 57.686157 355.59869
4.0431738 57.641209 356.59464
4.3756762 57.618568 357.09326
6.4921465 57.561539 359.09174
5.7619133 57.081936 361.43924
5.8321214 58.152046 350.53558
3.296757 57.177948 354.82883
3.4007525 57.127277 355.58093
4.7312479 57.03669 357.57584
5.0610805 57.013805 358.07602
6.5161648 57.001148 359.07513
6.8427477 56.977867 359.57785
5.785697 56.524551 361.4227
4.3681564 57.200356 351.15961
5.1513391 57.498436 351.30063
3.1777458 56.513153 354.92749
3.3242817 56.424015 355.61099
3.6586907 56.401463 356.10855
3.6485956 56.293938 356.95969
6.4368448 56.2957 359.10513
6.527185 56.244732 359.85925
4.6288366 56.664352 350.88052
4.6053901 56.731434 351.85147
2.9141176 55.743862 355.14261
3.2485423 55.721199 355.64032
3.581975 55.698509 356.1384
3.9144006 55.675659 356.63699
6.2136927 55.513443 360.13873
4.6920791 56.255493 349.98135
4.4211836 56.072071 351.12256
4.2956018 55.994995 352.14108
3.8370254 55.552719 354.26501
3.6074553 55.139618 356.12061
3.9398353 55.11676 356.61917
4.6010718 55.07069 357.61819
6.2369766 54.954197 360.12292
4.5720592 55.584053 350.08276
4.4478188 55.507824 351.10416
4.3221135 55.431747 352.12262
4.4281816 55.382526 352.88098
3.5285225 54.821857 354.55072
3.5305459 54.629425 355.3508
3.6322644 54.580673 356.10358
3.9647057 54.557728 356.60211
6.304276 54.607044 358.40002
6.3179889 54.549171 359.23834
4.8330345 55.045212 349.80249
4.3274136 54.838406 351.20532
3.9924974 54.669147 352.42065
3.7839115 54.479401 353.47403
3.5561345 54.069927 355.33301
3.6577907 54.021679 356.08578
3.9894848 53.998665 356.58502
4.0885468 53.950272 357.33667
6.1035762 53.933308 358.58206
3.7040186 53.965782 352.69968
3.8096874 53.917801 353.45633
3.8126621 53.535149 355.06116
3.6826615 53.462425 356.06879
4.0150113 53.439476 356.56726
4.1133704 53.391624 357.31964
6.1282663 53.37286 358.56476
4.7612133 53.839703 350.78879
3.9623971 53.428585 352.42383
3.603792 53.331398 353.69482
4.2164497 53.103107 354.67117
4.1717463 52.9519 355.54297
4.0398364 52.880135 356.55017
4.3705544 52.856987 357.04977
6.1522694 52.812378 358.54831
4.4508557 53.105888 351.07944
3.9889534 52.865849 352.4054
4.4301238 52.415516 355.26999
4.52987 52.368408 356.02512
5.941823 52.22794 358.78384
4.9406161 52.780399 349.72781
4.140388 52.373482 351.37012
4.0148239 52.302956 352.3877
4.1207638 52.256382 353.14478
4.2242332 52.209812 353.90216
10.201317 53.57486 348.60345
4.455792 51.854416 355.25223
4.5554147 51.807911 356.00729
5.6976385 51.591026 358.15024
4.733706 52.190098 349.97058
4.1670532 51.809544 351.35165
4.2745795 51.763466 352.11032
4.0440373 51.551231 353.17444
4.1474285 51.505169 353.93182
5.0945106 51.442299 354.60596
4.524878 50.756424 359.34671
4.6566687 51.480713 350.00113
4.4277587 51.268555 351.07233
4.5343537 51.222782 351.83289
3.9672799 50.846371 353.20401
4.0705633 50.800797 353.96143
4.4057364 50.777695 354.46115
4.7399178 50.754543 354.9614
4.0860085 50.155174 359.82971
4.3461075 50.749043 350.29306
4.4544263 50.703812 351.05396
4.3271317 50.636127 352.07425
4.4315586 50.215893 354.44345
3.8269701 49.732731 357.56155
3.922729 49.687916 358.31305
4.0173287 49.643127 359.06345
4.3415313 49.619453 359.56372
5.520143 50.558678 349.12634
4.481185 50.139065 351.03555
4.2503772 49.930073 352.10379
4.2517791 49.743191 352.91064
4.6902647 49.675377 354.16919
3.8517933 49.174271 357.54468
3.947567 49.129875 358.29608
4.3656354 49.061977 359.54739
4.8674994 49.661327 349.73257
4.5079136 49.574127 351.01718
3.9405227 49.203365 352.39261
4.2776489 49.18021 352.89291
4.614531 49.157036 353.39297
4.4830813 49.092022 354.40805
3.5480351 48.639111 357.02859
3.7738953 48.474815 357.57346
3.6382914 48.410995 358.57632
4.1850443 48.222843 359.62103
4.8950553 49.094833 349.71344
4.5346732 49.009087 350.99884
4.4078364 48.573586 353.63223
3.573652 48.080624 357.01096
3.8859363 47.689468 359.10403
4.4572177 48.302181 351.02899
4.5628467 48.258865 351.79019
4.3301988 48.05397 352.85687
4.6663337 48.030643 353.3576
3.5003865 47.564629 356.24149
3.9106355 47.13213 359.08701
4.4858775 47.552811 351.81955
4.356863 47.490704 352.83853
3.3802645 46.905724 356.33951
3.5207753 46.822918 357.02304
3.8485034 46.799274 357.52261
3.9868321 46.716618 358.20541
4.6163244 46.946198 352.56192
3.4518576 46.487846 355.45331
3.1150103 46.148087 356.55237
3.4435773 46.124397 357.05133
3.7711375 46.100662 357.55069
3.8658986 46.058926 358.30273
5.2403665 46.47924 351.00211
4.6430211 46.382141 352.54355
3.7093003 45.945724 355.18045
3.4685688 45.565857 357.03436
5.0328641 45.895157 351.24472
4.6697326 45.8181 352.52524
3.7351656 45.38512 355.16281
3.7304664 45.204548 355.9642
3.4941859 45.007256 357.01675
4.5922093 45.294575 351.74686
4.6957583 45.253796 352.50763
3.6574368 44.685074 355.19193
3.1913126 44.47224 356.50034
7.7759776 45.543941 347.60141
3.4531078 44.108601 355.42838
8.3921499 45.332047 346.17053
7.564414 44.954018 347.84949
4.645865 44.164886 351.71033
4.8496318 44.085293 353.23282
4.0437202 43.718464 354.8555
6.3193264 44.046627 354.22476
7.9646096 44.455372 346.52097
4.758296 43.517265 351.55072
4.4375753 43.40535 352.75989
4.582171 43.324871 353.44891
7.9925938 43.881298 346.50177
4.5602255 42.84898 351.737
4.3600049 42.702198 352.78885
3.9966264 42.63398 354.06268
7.6727548 43.149979 346.80151
6.9558358 42.923466 348.42493
4.2839508 42.176628 352.01041
4.1540012 42.124138 353.02917
3.4556801 41.905033 354.60422
6.745667 42.337624 348.67197
4.9250593 41.737602 351.35358
3.6090033 41.219341 354.37711
3.4778438 41.168598 355.38791
7.1433268 41.833302 347.34888
4.3376656 41.047848 351.97394
3.2585711 40.549015 354.73071
3.3995612 40.470631 355.41647
3.4975927 40.434029 356.17072
7.1712909 41.261028 347.32977
4.2606859 40.51997 351.19449
4.1321335 40.47047 352.21478
3.6616526 40.096405 354.3414
6.485816 40.649132 348.11111
4.2876282 39.954823 351.17627
4.1583719 39.90638 352.19736
3.3562057 39.55875 353.82367
3.6876271 39.534798 354.32394
6.1928105 39.835533 347.42004
6.406857 39.938793 348.14105
4.0819273 39.377808 351.4184
3.1484814 38.813583 354.86353
3.4772322 38.789555 355.36401
5.7487111 39.240879 347.93311
5.855515 39.205231 348.70142
3.7730377 38.664574 351.70621
3.5386832 38.481064 352.77274
3.0702426 38.116425 354.89221
3.3988416 38.09219 355.39249
5.4340653 38.694706 347.41006
5.7766557 38.670773 347.91415
5.8826957 38.635689 348.68326
3.4633067 37.952595 351.99484
5.747776 38.416172 350.53046
3.4358385 37.873459 353.76993
4.7796822 37.827225 348.01941
5.804616 38.100586 347.89529
5.9106398 38.065998 348.66431
3.4902155 37.389141 351.97672
5.434041 37.699959 350.82172
3.693363 37.321186 353.49506
3.6880171 37.150902 354.29935
3.6814506 36.980736 355.10223
4.8076391 37.25853 348.00049
5.1489644 37.234406 348.50342
5.4674144 37.47607 349.17441
3.5171552 36.825504 351.95856
5.4610949 37.132698 350.80353
3.9509199 36.767944 353.22025
3.6095519 36.452854 354.32776
3.7073934 36.419643 355.08481
4.6023068 36.680416 348.24573
4.708847 36.647034 349.01254
3.5440946 36.261848 351.94052
5.6524129 36.48315 350.55432
4.209868 36.21347 352.94382
4.3084569 36.180454 353.70441
3.9648731 35.866829 354.81125
-2.5323417 34.550144 355.63367
-2.2860608 34.60973 356.26321
3.5710652 35.698013 351.92242
5.6794682 35.915302 350.5361
4.4688182 35.657913 352.66739
4.5677724 35.625397 353.42834
-2.7262547 33.991367 355.866
-2.8407645 33.953995 356.8562
-2.737268 33.92326 357.59659
5.8627234 35.352581 350.34332
4.8271508 35.069206 353.15225
-3.0265796 33.463791 355.35672
-3.0203311 33.301647 356.14203
-2.9151113 33.271355 356.8826
-2.7114997 33.372837 357.57959
5.8252654 34.604286 350.30078
4.7553849 34.536144 352.37192
4.8533907 34.504528 353.1348
-2.5598173 32.923088 354.83798
5.2491307 33.984341 351.83392
5.0076599 33.810986 352.90396
-2.7531972 32.364895 355.07083
5.2761674 33.418007 351.81567
5.1608491 33.116211 352.67334
-2.8948171 31.705511 355.18842
-2.9412966 31.647722 356.08978
-2.6167107 31.623253 356.582
-2.3928523 31.467646 357.11713
-2.9017792 30.9974 355.1239
-2.7952514 30.969095 355.86591
-0.28360981 30.567244 357.48288
-2.2047248 30.160097 354.49765
-2.3012872 29.870935 355.32965
-2.1972175 29.843483 356.07361
-2.1004472 29.902323 356.87051
-0.25783423 30.013233 357.46576
-2.2745976 29.317774 355.31201
-2.1705599 29.290934 356.05594
4.2596045 29.578861 348.64478
-1.459567 28.275871 355.32288
-1.14749 28.424316 355.92725
-0.92592132 28.269217 356.46579
-1.1509312 28.111635 357.50406
-1.3250186 27.609444 355.99704
-1.4464178 27.583382 356.9924
-1.1250514 27.558823 357.48703
-2.0653002 27.079601 355.98679
-1.9633111 27.05481 356.73029
-2.141027 26.551086 355.22388
-2.0385501 26.526642 355.96918
-1.9366536 26.502251 356.71265
-1.8371527 26.477968 357.45651
-2.1149006 25.997383 355.20703
-2.0118608 25.973482 355.95157
-1.8111825 25.925856 357.43961
-2.0362463 25.339891 355.07248
-2.0870326 25.291449 355.97726
-1.7647504 25.266733 356.47147
-2.0670018 25.202936 357.64453
-1.9406743 24.759666 354.96231
-2.162251 24.609806 356.0029
-1.8408687 24.584944 356.49768
-1.7405624 24.562214 357.24106
-2.1355619 24.056849 355.98538
-1.7146374 24.009802 357.22409
-1.668074 23.798567 353.88522
-2.0693874 23.610165 355.1102
-2.1094983 23.503742 355.96851
-1.4671614 23.454224 356.95743
-1.4184251 23.23984 353.6134
-2.1847303 22.97193 355.20581
-2.082794 22.950588 355.95087
-0.99753577 22.893938 356.44012
-1.3913937 22.68358 353.59586
-1.3643622 22.127329 353.57831
-1.5460694 21.939207 354.55338
-1.5870854 21.835091 355.41376
-0.4991982 21.776232 355.90268
-0.40772301 21.842775 356.70615
-0.20358324 21.863756 357.35645
-1.4406042 21.295565 354.39703
-1.1169176 21.270651 354.89255
-0.79416144 21.245687 355.38855
-0.47311437 21.220732 355.88568
-0.82140195 21.211235 357.1348
-0.66915119 20.670845 356.11932
-0.79539776 20.657335 357.11789
-1.3860713 20.184505 354.36121
2.9573531 20.842442 350.7421
-0.51810205 20.128513 355.10123
-0.64306813 20.115744 356.10239
-0.49122322 19.572254 355.08359
-0.83915365 19.567255 356.33618
2.6764507 19.590525 351.01181
-0.68817717 19.023172 355.31937
-0.91608208 18.886072 356.36172
-0.53695244 18.477036 354.29837
-0.43812156 18.459698 355.04904
-0.66715801 18.323803 356.09317
-0.73337275 17.928156 354.53461
-0.63501608 17.911411 355.28485
-0.31496087 17.886507 355.78241
-1.2517577 17.405281 354.27417
-1.2156765 17.218307 354.99612
-0.77929622 16.83094 353.74896
-1.1097956 16.572798 354.83878
-1.0759044 16.298851 353.23459
-1.2069685 16.011824 355.8222
-1.2200997 15.64539 353.35278
-1.2743335 15.611587 354.26489
-1.0559026 15.461291 354.80362
-1.1807334 15.45701 355.80536
-1.1582884 15.017484 353.25549
-1.3503616 14.930444 354.28986
-1.0295891 14.905386 354.7868
-0.32314357 14.593237 352.41406
-1.1011071 14.36318 354.01855
-1.0026193 14.349434 354.76923
-0.80766767 13.887342 352.88086
-1.0740751 13.806624 354.00107
-0.97560364 13.793476 354.75168
-0.70150429 13.237992 352.72192
-0.60118705 13.225146 353.47437
-0.50328118 13.2125 354.22723
-0.6736297 12.679788 352.70374
-0.57403052 12.667386 353.45685
-0.47621724 12.655248 354.20966
1.8056113 12.500443 350.18588
-0.32398978 12.096172 353.18469
2.0617228 11.922665 349.90652
-0.072603844 11.523758 352.91092
2.0892446 11.358018 349.88892
0.84003276 11.169504 352.03619
2.1174679 10.793419 349.87067
0.20605154 10.390586 352.61954
1.810176 10.119578 350.15854
0.23327303 9.8309355 352.60196
1.7315533 9.4312057 350.1846
1.1483949 9.4700336 351.72513
1.759043 8.8672791 350.16699
0.91334075 8.7701254 351.91403
2.0150547 8.2861347 349.88742
0.5399816 8.1343374 352.29227
2.043263 7.7215581 349.86914
2.0708456 7.1568503 349.85156
1.0457393 6.9768271 351.74127
2.5555091 6.5546427 349.30978
1.0731633 6.4151783 351.72366
1.1004804 5.8534651 351.70621
1.9930085 5.2787209 349.86407
1.3541586 5.2718301 351.42987
1.512558 4.6938872 350.38998
1.381584 4.7094622 351.41226
-1.2042279 3.8485737 350.60144
1.3965214 3.9682236 350.43048
13.940022 108.67067 354.58392
13.338874 107.87846 354.8855
12.213865 107.98213 353.03674
12.778058 107.10007 355.77203
11.647301 107.64571 352.36157
12.24247 107.19096 354.04861
12.772474 106.41029 355.92438
11.033441 106.63772 353.20111
11.630214 106.55289 353.66122
12.225475 106.46803 354.12134
12.789157 106.21839 354.68265
11.625283 105.6788 354.42407
11.643988 105.04716 354.7392
12.207223 104.79961 355.29861
12.816736 104.6466 356.29486
11.059578 104.93334 353.03116
11.650796 104.56559 354.36514
12.189716 104.0807 355.37152
12.786227 103.92342 356.17239
11.061251 104.16587 353.53094
11.66359 104.00944 354.33676
12.213588 103.37865 356.02753
12.798941 103.36928 356.14417
11.062918 103.40143 354.03079
11.658371 103.14256 355.09601
12.226256 102.82456 355.9982
12.811639 102.81516 356.11481
9.2818527 100.08913 362.02664
11.653265 102.27972 355.85437
12.239 102.27041 355.96994
8.7166338 99.314301 362.60593
12.251774 101.71629 355.94061
8.7086315 98.427521 363.36014
11.132965 102.04438 353.34412
11.696901 101.47623 355.00781
8.1759424 98.409767 362.04581
8.7211666 97.8862 363.33148
10.527727 101.45719 352.92313
11.13233 101.30571 353.73022
11.691698 100.61636 355.76733
12.277478 100.60696 355.88397
8.1692467 97.643257 362.44058
8.733717 97.344872 363.30286
9.9573202 100.83656 353.1279
10.555502 100.75684 353.58621
11.152051 100.677 354.04651
11.6983 100.1317 355.3952
12.290347 100.05187 355.85464
8.1435223 97.008438 362.1814
8.7463131 96.803436 363.2742
9.9703178 100.27845 353.09839
10.537905 100.03691 353.65903
11.134467 99.958145 354.11841
11.704935 99.646004 355.02399
7.6273985 96.854515 361.51981
8.1657019 96.40081 362.47971
8.7588949 96.261917 363.24551
