ply
format ascii 1.0
comment PCL generated
element vertex 1545
property float x
property float y
property float z
element camera 0
property float view_px
property float view_py
property float view_pz
property float x_axisx
property float x_axisy
property float x_axisz
property float y_axisx
property float y_axisy
property float y_axisz
property float z_axisx
property float z_axisy
property float z_axisz
property float focal
property float scalex
property float scaley
property float centerx
property float centery
property int viewportx
property int viewporty
property float k1
property float k2
end_header
-18.081497 108.2226 354.95789
-18.178177 108.199 355.52014
-20.456833 107.33881 357.74411
-20.793686 107.21872 358.29828
-21.596024 106.91 358.84464
-15.419052 108.67752 353.81067
-16.230789 108.36407 354.37677
-16.63826 108.27323 354.95538
-18.1595 107.6743 355.51349
-20.481033 106.89772 357.20618
-20.764175 106.5704 357.70584
-20.866898 106.54472 358.2626
-20.969528 106.52003 358.819
-14.900253 108.39224 353.24988
-14.99382 108.36958 353.81784
-16.522842 107.76923 354.38385
-16.618454 107.74559 354.9487
-17.211227 107.34899 355.4689
-19.850662 106.50697 357.17776
-20.746597 106.04771 357.69922
-20.848282 106.02306 358.25598
-20.952011 105.99733 358.81241
-15.112503 107.61036 353.76895
-16.504135 107.24158 354.37723
-19.732346 106.00791 356.61243
-20.15889 105.73849 357.13992
-20.830704 105.50037 358.24936
-20.934372 105.47467 358.80576
-15.453293 106.93723 353.76257
-16.172592 106.78114 354.35699
-16.052933 106.80102 355.47485
-20.099503 105.13219 357.66455
-20.202164 105.10651 358.22241
-20.610794 105.01688 358.78952
-15.119705 106.4749 353.74155
-16.663284 106.03934 354.34698
-17.367386 105.72758 354.89859
-19.081253 105.0906 356.57599
-20.183548 104.58385 358.21576
-16.941177 105.28975 354.31464
-17.657547 105.13585 354.90527
-19.063614 104.5659 356.56952
-19.562973 104.32587 357.11111
-19.971542 104.2372 357.68076
-19.774124 104.26205 359.89316
-15.706894 105.28612 353.75739
-17.232376 104.69895 354.32199
-17.63887 104.61018 354.89877
-19.431717 103.68913 357.62292
-19.944962 103.57369 358.75012
-16.165359 104.56927 353.75095
-16.902725 104.23647 354.30151
-17.620132 104.08455 354.8923
-18.511032 103.61895 357.09366
-20.130692 103.01279 358.19601
-20.234329 102.98706 358.75339
-21.991959 102.44233 359.86771
-16.477463 103.79661 353.71613
-16.573044 103.77295 354.2811
-16.980606 103.68513 354.85913
-18.492264 103.09329 357.08713
-19.395401 102.63979 357.60971
-20.216751 102.46336 358.74689
-22.135941 101.8008 359.84402
-16.242386 103.3095 354.2605
-16.650864 103.22164 354.83917
-17.370407 103.07068 355.42932
-10.667892 105.23702 356.49265
-18.565353 102.41729 357.05084
-19.377762 102.1151 357.60315
-19.481339 102.08932 358.16208
-20.901016 101.66655 358.73001
-22.708725 101.03495 359.27203
-15.482254 103.11283 353.70255
-16.222641 102.7809 354.25391
-16.631149 102.69404 354.83264
-10.648788 104.69939 356.48605
-19.257523 101.61615 357.03741
-19.359055 101.59048 357.59662
-19.769852 101.50372 358.16595
-23.385239 100.24541 359.25421
-15.074722 102.6171 353.66687
-15.891861 102.31544 354.23331
-16.612381 102.16636 354.82617
-17.021988 102.07953 355.40347
-18.529922 101.36492 357.03763
-19.341415 101.06573 357.59012
-22.264877 100.08111 358.69629
-23.067581 99.785446 359.23831
-14.146255 102.4118 352.52225
-14.239792 102.38812 353.09122
-14.64827 102.30213 353.67468
-15.969681 101.7621 354.79242
-17.002213 101.55187 355.39709
-19.015732 100.60209 357.57248
-21.8405 99.645882 358.12543
-22.277939 99.51062 358.67969
-14.125412 101.88119 352.51575
-14.220016 101.8575 353.08475
-14.795883 101.64947 353.65369
-15.133621 101.53304 354.22107
-15.636856 101.29571 354.77219
-16.048416 101.20872 355.35135
-18.997116 100.07742 357.56598
-21.517838 99.18412 358.1084
-22.926987 98.77375 358.6731
-13.790634 101.4129 352.49338
-14.200058 101.32684 353.07834
-15.111038 100.87674 353.61813
-15.207535 100.85203 354.18518
-15.305069 100.82727 354.75183
-15.716537 100.7413 355.3316
-18.09407 99.818481 356.99258
-21.001633 98.896271 357.56573
-22.199387 98.396385 358.09277
-13.769791 100.88129 352.48685
-14.180222 100.79623 353.07196
-15.187668 100.3224 354.17868
-15.383682 100.27287 355.31177
-17.829178 99.256767 356.39624
-20.983078 98.374603 357.5593
-21.484695 98.140579 358.0954
-22.287582 97.849144 358.64001
-13.749924 100.35067 352.4805
-14.254105 100.11419 353.0361
-14.590866 99.998795 353.60483
-15.050858 99.803474 355.29196
-19.761795 98.351135 357.022
-20.661362 97.909904 357.54184
-21.96788 97.385872 358.62341
-14.328964 99.432121 353.00021
-15.365555 99.22757 353.61374
-16.185745 99.058685 354.77423
-19.927811 97.529007 356.95496
-20.643723 97.387123 357.5354
-21.64711 96.921638 358.60669
-14.936264 98.782906 353.02502
-15.752579 98.48877 353.59271
-15.850113 98.46386 354.15857
-16.47905 98.470795 354.78174
-19.008591 97.444626 356.42645
-19.910172 97.00528 356.94861
-20.013748 96.97876 357.50647
-20.73082 96.837502 358.08554
-21.021103 96.513275 358.57947
-14.938583 98.636467 359.75854
-14.916397 98.252693 353.01862
-15.826614 97.810043 353.55661
-15.924118 97.78492 354.12225
-16.022629 97.759682 354.68762
-16.122177 97.7341 355.25275
-19.318192 96.683151 356.38776
-19.891495 96.481529 356.94223
-19.996201 96.454842 357.50009
-20.896927 96.017677 358.01718
-14.86116 98.055695 359.1705
-14.239548 98.299393 359.7493
-14.89653 97.72287 353.0123
-15.806839 97.281395 353.55023
-16.102341 97.205177 355.24628
-17.550949 96.921959 356.42523
-19.671341 95.987457 357.48221
-13.966568 97.730705 359.14752
-15.080704 97.089058 352.99893
-18.242142 96.029991 354.15158
-18.649765 95.947754 354.72696
-18.542801 95.952293 355.83475
-19.817368 95.345459 357.45889
-13.989731 97.285507 358.60217
-14.133316 96.80291 352.39957
-14.950699 96.513618 352.96991
-17.816727 95.586403 353.5686
-18.223404 95.504669 354.14526
-18.722977 95.274734 354.69046
-18.688736 95.309212 355.81241
-19.120651 95.047623 356.33994
-19.020554 95.049805 357.44638
-13.798325 96.329453 352.37677
-14.208847 96.247086 352.96194
-17.323196 95.234039 353.56201
-17.895554 95.035004 354.12451
-18.797134 94.601913 354.65396
-18.383987 94.659897 355.74762
-18.8983 94.551186 356.88065
-14.597916 95.509697 352.94131
-17.469131 94.590157 353.5408
-17.876877 94.509056 354.11829
-18.879593 94.025742 356.87433
-13.601059 95.198212 352.89716
-17.449387 94.06382 353.53458
-17.951004 93.835197 354.0816
-18.451675 93.606888 354.62701
-18.047012 93.784332 356.31387
-18.553665 93.554573 356.8558
-12.471786 95.08474 352.89346
-17.120529 93.591942 353.51303
-18.122147 93.109512 356.27628
-11.718735 94.81337 352.88544
-16.79155 93.118958 353.49142
-17.201248 93.038742 354.07013
-17.300827 93.012619 354.63303
-18.207596 92.582985 355.16141
-16.816818 92.981567 361.87408
-10.866318 94.566292 352.30347
-12.017868 94.22229 352.89545
-16.772781 92.591476 353.4852
-17.181564 92.511726 354.06393
-17.613449 92.252907 354.59525
-18.188828 92.057022 355.15521
-18.814163 92.071404 355.77362
-19.317856 91.844376 356.315
-16.575912 92.507446 360.74442
-16.687454 92.47905 361.30624
-17.114334 92.396324 361.87546
-10.942093 93.879601 352.2666
-12.316086 93.632225 352.90533
-16.131577 92.170425 353.44794
-16.542343 92.090874 354.02783
-17.759384 91.610321 354.57309
-18.477463 91.478439 355.16281
-18.888351 91.399002 355.7366
-19.29924 91.319511 356.30896
-16.558121 91.976425 360.73804
-10.922043 93.343391 352.26035
-11.976974 93.152878 352.88303
-15.800461 91.69471 353.42606
-16.211288 91.615524 354.00659
-18.860001 90.754028 355.13931
-18.96257 90.726974 355.69907
-19.240341 90.713974 356.2775
-11.072647 92.689117 352.23911
-11.414352 92.577118 352.81323
-13.178574 92.311668 353.48013
-16.704849 90.934731 354.00748
-17.556229 90.672562 354.57663
-18.131729 90.478546 355.13654
-19.037796 90.055168 355.66141
-19.141312 90.027786 356.22064
-16.377701 90.850227 360.69693
-16.731735 90.736626 361.25342
-16.844254 90.707733 361.81467
-10.238632 92.379562 352.2139
-12.764084 91.677338 352.84152
-17.292343 90.10865 353.97736
-17.702225 90.030579 354.55457
-18.113083 89.952217 355.1304
-16.923233 90.027641 361.77429
-13.157181 90.942146 352.82062
-14.298233 90.610107 353.40683
-16.868393 89.779533 353.98715
-17.683456 89.5037 354.5484
-18.188248 89.279335 355.09265
-18.291794 89.252052 355.65341
-18.489243 89.077995 356.18179
-15.95488 89.580536 351.17264
-13.548386 90.20871 352.79971
-16.539261 89.302162 353.96582
-17.664719 88.976921 354.54236
-15.811874 89.183342 359.49399
-16.067978 89.219666 360.08652
-16.662552 89.023743 360.63895
-16.71077 89.09404 361.22321
-15.457138 89.217491 351.16309
-15.317734 89.394684 352.32523
-16.208237 88.824303 353.94446
-17.026291 88.549942 354.50677
-17.438156 88.472641 355.08389
-17.541672 88.44529 355.64572
-16.422806 88.550285 359.50854
-16.533249 88.521629 360.07077
-16.64473 88.492775 360.63263
-17.071609 88.413162 361.20279
-17.81105 88.283279 361.77969
-15.290726 88.624435 351.12463
-14.958542 88.645874 352.79074
-15.157486 88.592438 353.92386
-16.696213 88.071686 354.48572
-17.419418 87.94516 355.07773
-16.515366 87.990501 360.06445
-16.627853 87.961617 360.62634
-17.053787 87.882492 361.19653
-17.576675 87.655586 361.7308
-15.583237 88.045418 351.13663
-14.409439 88.188652 353.31918
-15.810226 87.888947 353.93262
-16.677383 87.543091 354.47961
-16.779831 87.515793 355.04297
-20.262314 86.375107 358.3736
-20.452286 86.508087 358.98065
-15.758133 87.58757 359.47501
-16.497513 87.459457 360.05814
-16.610001 87.43042 360.62006
-17.131912 87.20433 361.15591
-15.251114 87.565674 351.11267
-14.804428 87.580566 353.89618
-16.035843 87.112244 354.44357
-19.844223 86.043518 358.38925
-20.700943 85.855011 358.95972
-15.74025 87.05558 359.46869
-16.166153 86.977402 360.04196
-16.593063 86.899193 360.61383
-14.510208 87.160263 350.50262
-14.917953 87.085144 351.08865
-15.327774 87.009834 351.67322
-14.470108 87.09845 353.87439
-15.200272 86.973068 354.47171
-20.117447 85.354546 357.80499
-20.948654 85.203072 358.9389
-21.060257 85.173973 359.49353
-16.148331 86.445702 360.03574
-16.575272 86.367798 360.60757
-14.489365 86.62986 350.49658
-14.898178 86.55513 351.0827
-15.307938 86.480164 351.66733
-14.350815 86.59362 353.30099
-14.451187 86.566475 353.86841
-13.915726 86.602631 356.09406
-19.991257 84.85849 357.2421
-20.569199 84.671646 357.79257
-21.258713 84.455818 358.89563
-15.608536 86.138573 359.49036
-16.130386 85.913895 360.02948
-14.155167 86.147499 350.47183
-14.564957 86.073013 351.05853
-14.330948 86.06176 353.29492
-14.005295 86.076164 354.96692
-13.896744 86.068962 356.08792
-19.502274 84.491875 357.24133
-20.988876 83.895668 358.30533
-21.404007 83.821007 358.87097
-15.797958 85.429771 360.01328
-13.820938 85.664124 350.44702
-14.230698 85.59005 351.0343
-14.641556 85.515648 351.62027
-14.31102 85.529961 353.28894
-13.352554 85.638924 354.93115
-13.455978 85.611153 355.49976
-14.194229 85.487259 356.09558
-19.233261 83.929115 356.64688
-19.954849 83.809059 357.23007
-20.064438 83.780228 357.7868
-21.580368 83.281975 358.32224
-15.150009 84.992188 359.98672
-13.800003 85.132607 350.44104
-14.210861 85.0588 351.02838
-14.621658 84.984894 351.61435
-13.660294 85.092529 353.25021
-13.015244 85.152466 354.91013
-13.436996 85.076889 355.49365
-13.85881 85.001312 356.07571
-19.522079 83.358208 356.65393
-19.937271 83.284233 357.22403
-20.445328 83.066284 357.75937
-20.953598 82.848389 358.29324
-14.289688 84.729782 359.42932
-14.64476 84.619972 359.99011
-12.642075 85.033577 350.44104
-13.876541 84.574242 351.00409
-14.601761 84.453964 351.60843
-13.640335 84.559486 353.24426
-12.996201 84.617737 354.90402
-13.418015 84.542618 355.48758
-13.839859 84.467438 356.0697
-18.995621 82.972435 356.64478
-20.520737 82.398087 357.72
-20.935928 82.324562 358.28717
-13.879379 84.208664 359.39706
-11.892044 84.620392 349.82486
-12.304733 84.546898 350.41623
-13.540207 84.088821 350.97971
-13.953079 84.015457 351.56686
-12.340286 84.176399 354.86774
-13.820938 83.933495 356.06369
-18.870682 82.396202 356.61569
-19.287704 82.322845 357.18695
-21.112259 81.786362 357.73813
-11.871017 84.085876 349.81897
-12.283829 84.012817 350.41034
-12.848465 83.537865 356.01578
-18.545334 81.913734 356.59644
-19.363052 81.653046 357.14734
-19.978561 81.486702 357.70645
-12.019791 83.438972 349.79855
-12.359726 83.333061 350.37268
-12.868576 83.114868 350.93066
-13.282364 83.042145 351.51901
-11.883835 83.297485 354.87399
-12.168472 83.287498 355.46576
-12.829483 83.002274 356.00974
-18.526596 81.386848 356.59045
-12.339401 82.680496 349.76358
-12.434769 82.653503 350.33496
-12.84761 82.581375 350.92474
-13.261429 82.50901 351.51321
-12.066055 82.585876 355.40497
-12.171341 82.557388 355.97543
-18.507919 80.85981 356.5845
-18.924973 80.787605 357.15634
-18.752884 80.756104 359.36572
-11.48967 82.527107 349.78177
-12.413834 82.119606 350.32907
-12.510147 82.0924 350.90012
-12.608536 82.06514 351.47092
-17.682785 80.705826 356.61914
-18.201431 80.330231 358.23111
-18.42543 80.270966 359.34882
-9.9959869 82.463165 349.76025
-11.757889 81.674171 350.28427
-12.172714 81.602531 350.87537
-12.904068 81.486717 351.48331
-11.002274 81.757599 354.80377
-11.287918 81.748344 355.39743
-13.089951 81.350624 356.00592
-17.448441 80.076439 356.56616
-18.18364 79.801903 358.22522
-17.787247 79.827278 359.32104
-10.180038 81.791039 349.73672
-11.321518 81.328445 350.29135
-11.834244 81.11161 350.85062
-12.2491 81.040428 351.4408
-12.665939 80.968857 352.02966
-13.069962 80.815178 355.99997
-17.118057 79.589958 356.54681
-17.434006 79.386948 357.63467
-18.165848 79.273506 358.21924
-17.769516 79.297783 359.31497
-10.147751 81.096436 349.68445
-10.563492 81.02533 350.27884
-11.911606 80.54882 351.4165
-12.328445 80.477654 352.00598
-11.366989 80.802986 354.86295
-12.796677 80.226219 355.957
-16.381882 79.287628 356.54791
-17.304733 78.887207 357.0679
-17.415207 78.857674 357.62878
-17.526688 78.82795 358.18921
-9.1002655 80.991325 348.54956
-9.7072296 80.748222 349.69077
-10.222031 80.531662 350.25348
-10.639725 80.460785 350.84717
-11.572037 80.05629 351.39215
-12.307419 79.942642 352.00021
-11.438614 80.002014 354.21738
-11.862473 79.930397 354.80441
-11.967789 79.901718 355.37512
-12.393692 79.829872 355.95975
-16.459091 78.613251 356.50769
-17.286911 78.357719 357.06201
-17.397385 78.328156 357.62286
-17.508896 78.298439 358.18323
-17.734848 78.238663 359.30304
-17.848312 78.208557 359.86234
-9.5955963 80.11866 348.50089
-9.7841034 80.064468 349.65259
-10.200912 79.99398 350.2478
-10.618637 79.9235 350.8414
-11.232498 79.562805 351.36768
-11.650375 79.492386 351.95837
-10.994644 79.535873 353.62302
-11.73912 79.421989 354.22754
-11.843399 79.393333 354.79855
-12.587875 79.279572 355.39893
-12.69426 79.250679 355.96817
-16.956406 77.869003 357.04282
-17.378616 77.798706 357.61688
-17.603531 77.738976 358.73737
-17.716995 77.708984 359.29709
-9.8949127 79.537926 348.51648
-9.7620087 79.526283 349.64682
-10.179794 79.456146 350.24197
-10.37532 79.400909 351.39087
-11.629318 78.956169 351.95258
-11.29509 78.955696 353.63373
-11.71904 78.884964 354.22174
-11.823288 78.8563 354.79269
-12.665878 78.598381 355.35867
-12.772263 78.56942 355.92773
-16.326309 77.695366 356.53043
-16.626907 77.379143 357.02362
-16.737381 77.349503 357.58548
-17.584671 77.209267 358.73148
-17.699173 77.179146 359.29117
-9.9709015 78.855782 348.4783
-9.74086 78.987968 349.64102
-10.032669 78.905098 351.36646
-10.970139 78.503143 351.91046
-11.275009 78.418159 353.62793
-11.698929 78.347778 354.21585
-12.637619 77.946602 354.74905
-13.061539 77.876457 355.33334
-14.605392 77.573921 355.94098
-16.162704 77.09594 356.49249
-16.607986 76.848656 357.01773
-16.719559 76.818787 357.57962
-17.566818 76.679466 358.72559
-17.68132 76.649261 359.28525
-10.628494 78.007126 351.88632
-10.729782 77.978828 352.45972
-10.831039 77.950409 353.03271
-11.253952 77.880554 353.62207
-11.678879 77.810562 354.21008
-12.551224 77.507309 354.76617
-14.332413 77.0009 355.33636
-14.925308 76.822212 355.89871
-16.479752 76.347641 356.44971
-16.590195 76.317978 357.0119
-17.012344 76.248878 357.58646
-17.549057 76.149559 358.71976
-17.663498 76.119362 359.27945
-9.5696259 77.896866 350.76089
-9.9904633 77.827667 351.35504
-10.810959 77.412247 353.02692
-10.913254 77.383629 353.59961
-11.756821 77.128784 354.1698
-12.106949 77.024765 354.7395
-14.483383 76.358276 355.3125
-15.534836 76.210503 355.92169
-16.460922 75.81694 356.44385
-16.571335 75.787201 357.00598
-17.306198 75.679619 357.59351
-17.219437 75.658401 358.70215
-17.740768 75.446648 359.23785
-9.8184967 77.194229 349.01144
-10.095108 77.187607 349.61139
-10.142197 77.178978 351.33334
-10.045334 76.983513 352.41223
-10.469254 76.914474 353.00378
-10.893082 76.845306 353.59384
-14.778183 75.785942 355.32172
-15.851883 75.46241 355.8793
-16.442032 75.286179 356.43802
-16.552444 75.256439 357.00024
-17.704605 74.80471 358.63693
-9.8504791 76.54567 349.55215
-10.465958 76.421349 351.29544
-10.024216 76.444313 352.40646
-10.448135 76.375671 352.99802
-10.873093 76.306953 353.58807
-11.714706 76.054779 354.15839
-14.167099 75.429184 354.75253
-14.759201 75.252777 355.31601
-16.000961 74.823158 355.85513
-16.423172 74.755424 356.43225
-16.533554 74.725479 356.99442
-16.646103 74.69545 357.55618
-16.758469 74.665344 358.11761
-16.871964 74.635025 358.67868
-9.829361 76.007248 349.54645
-10.004074 75.905067 352.40076
-10.106308 75.87632 352.97479
-10.852921 75.768517 353.5824
-11.302078 75.521202 354.11911
-14.317093 74.787376 354.729
-15.054977 74.681702 355.32538
-15.669357 74.329407 355.83487
-16.091568 74.261955 356.41241
-16.515762 74.194427 356.98865
-16.627121 74.16436 357.55045
-17.075638 73.9198 358.07254
-3.9647827 77.158386 348.87628
-9.8072662 75.468773 349.54077
-9.7813873 75.42289 351.24591
-9.9829254 75.365677 352.39502
-10.085159 75.336807 352.96909
-14.298172 74.2537 354.72327
-14.817398 74.04409 355.26962
-15.167648 73.942093 355.83282
-15.759842 73.767586 356.39255
-16.496811 73.663368 356.98294
-16.914047 73.318893 358.03436
-7.3589325 75.651688 348.35263
-7.8749847 75.55661 349.53189
-9.5617828 74.940468 350.09003
-9.4376068 74.922241 351.22104
-9.316452 74.903496 352.353
-10.065079 74.797272 352.96338
-13.3694 73.931778 354.13623
-13.963425 73.757286 354.70193
-15.317764 73.302216 355.8085
-15.740982 73.235527 356.38687
-15.852341 73.205406 356.94998
-7.0169983 75.03212 347.71185
-7.0428162 75.100807 348.31406
-7.8554993 74.898796 348.91443
-8.3736267 74.803925 350.09116
-9.2952423 74.362953 352.34729
-10.365585 74.219666 352.97522
-11.734512 73.760941 354.10065
-13.943527 73.223068 354.69623
-14.682358 73.119843 355.29327
-15.408218 72.739578 356.36685
-15.83345 72.673248 356.94418
-15.945847 72.642906 357.50705
-6.9947357 74.489807 347.70618
-7.7381744 74.385376 348.33026
-7.8333435 74.357323 348.90894
-7.9295197 74.32917 349.48721
-8.0267639 74.300888 350.06534
-8.5496674 74.090454 350.6286
-9.0726166 73.880074 351.19043
-9.2751007 73.822319 352.34161
-9.3773651 73.793266 352.91672
-11.71434 73.223396 354.09494
-13.923538 72.688683 354.69058
-14.444748 72.480721 355.23718
-14.965134 72.272751 355.78229
-15.389359 72.206917 356.36111
-15.814529 72.140953 356.93854
-15.926987 72.110626 357.50131
-6.9714508 73.947372 347.70062
-7.7159424 73.843811 348.32471
-8.9511871 73.368294 350.60876
-9.0504303 73.339478 351.18481
-8.9292145 73.318924 352.31757
-10.106857 73.148781 353.5202
-14.521957 71.805069 355.19617
-14.946091 71.739601 355.77658
-15.056564 71.709358 356.34113
-15.796616 71.608444 356.93289
-15.909012 71.578117 357.49564
-6.9492798 73.404915 347.69507
-7.3690948 73.339478 348.29715
-7.7888947 73.273979 348.89786
-7.8860931 73.245575 349.47617
-7.9832764 73.217194 350.0542
-8.3818359 72.872513 351.14023
-9.3306427 72.483124 351.68494
-8.9090118 72.777565 352.31192
-9.9369659 72.537804 353.47958
-11.032608 72.220352 354.05038
-12.933121 71.726051 354.63147
-14.9272 71.206223 355.77087
-15.351486 71.141159 356.34979
-16.114822 70.864731 356.88849
-7.0201874 72.834236 348.26938
-7.6833496 72.565628 348.83255
-7.963913 72.560486 349.43655
-8.0611572 72.531914 350.01447
-8.2604218 72.359673 350.5575
-11.235977 71.727959 351.79272
-11.339279 71.698723 352.36459
-11.443527 71.669243 352.9361
-12.596268 71.225082 354.60974
-13.892502 70.889442 355.18259
-14.592453 70.707359 355.75024
-15.332474 70.608208 356.34412
-15.952194 70.261375 356.84949
-6.6722717 72.327744 348.24173
-7.2952576 71.976326 348.77524
-7.7161255 71.911674 349.37558
-8.1389771 71.846825 349.97452
-11.211746 71.07769 351.18048
-11.314011 71.048378 351.75241
-11.417282 71.018944 352.32407
-11.422409 71.131538 352.93054
-8.0986938 71.743591 353.39932
-10.45607 71.183289 354.57828
-14.573471 70.173393 355.74463
-15.313583 70.075119 356.33853
-15.933182 69.729118 356.84381
-6.6499786 71.784355 348.23624
-8.343338 71.298508 349.41254
-10.499435 70.851906 350.63358
-11.49437 70.3396 352.28339
-12.874008 70.117577 354.61462
-14.55452 69.639328 355.73904
-15.3918 69.40126 356.29678
-7.4783325 70.884689 348.20721
-8.2238922 70.786011 348.82959
-10.229294 70.271011 350.01816
-10.650314 70.207542 350.61191
-11.071396 70.144089 351.20416
-11.370956 69.831711 351.70642
-13.02504 69.475967 354.59064
-13.379288 69.376305 355.15692
-14.5345 69.105156 355.7334
-15.469101 68.727745 356.25516
-14.899826 68.953972 359.10587
-7.7807617 70.30793 348.22421
-8.2017212 70.244652 348.82422
-10.208176 69.732315 350.0127
-10.62825 69.669258 350.60645
-10.71019 69.361069 351.66266
-11.878311 69.1446 354.55481
-13.773392 68.666718 355.1311
-14.199539 68.6036 355.71271
-14.766464 68.449928 358.53656
-7.6623535 69.794823 347.64032
-8.0823517 69.732018 348.24115
-8.6024017 69.52755 348.80618
-9.692276 69.332413 350.00287
-10.287338 69.1642 350.58105
-12.177048 68.573822 354.56555
-13.338303 68.305031 355.14597
-14.632095 67.945862 357.96692
-15.233566 67.778481 358.52292
-7.3154297 69.28653 347.61191
-9.1995087 68.75351 349.93976
-9.9443512 68.658112 350.55557
-10.367386 68.595779 351.14914
-11.83812 68.068542 354.5437
-12.586227 67.973511 355.14505
-12.892929 67.66114 355.64026
-15.554886 67.035904 358.47614
-7.2921295 68.74408 347.60657
-7.7130737 68.68203 348.20807
-9.5001678 68.18058 349.95514
-10.244003 68.086205 350.57037
-11.068924 67.624664 353.93399
-11.818039 67.53038 354.53818
-11.927261 67.499985 355.10791
-15.53688 66.502022 358.47046
-15.653305 66.470779 359.03259
-7.2698669 68.201492 347.60123
-7.7910004 67.99855 348.16812
-8.1371002 67.900681 348.74927
-8.7341156 67.734123 349.33194
-9.7998199 67.608543 349.97058
-11.048813 67.08551 353.92853
-11.157028 67.055031 354.49963
-11.266251 67.024506 355.07043
-11.697525 66.962524 355.65625
-14.461655 66.371254 357.38596
-14.674301 66.200142 357.91287
-15.202866 65.99839 358.45203
-8.2899323 67.254272 348.72806
-9.0347748 67.161446 349.34805
-9.4568024 67.10038 349.94449
-9.5580597 67.070732 350.51935
-11.136856 66.5158 354.49411
-11.24617 66.485176 355.06491
-11.35643 66.454552 355.63531
-11.580978 66.392891 356.77502
-13.80864 65.896538 357.35291
-14.752487 65.525032 357.87
-15.184952 65.463875 358.44641
-6.9957733 67.118538 348.14706
-8.5905151 66.68148 348.74484
-8.6896667 66.651955 349.32126
-9.1128082 66.591118 349.9183
-9.6360321 66.389862 350.47861
-10.265396 66.209091 353.91959
-10.472916 66.037552 354.45523
-10.804581 65.945351 356.16965
-13.789627 65.360138 357.34738
-15.165909 64.929337 358.4408
-6.8226929 66.501907 348.10324
-7.8214417 66.342613 348.73019
-8.667511 66.110649 349.31598
-10.344467 65.527718 353.87756
-10.239944 65.496613 355.00519
-10.673233 65.4356 355.59302
-11.219681 65.343697 356.74942
-13.805557 64.625526 357.84784
-14.831863 64.423454 358.42233
-7.0543823 65.779434 347.4873
-7.8012238 65.689041 348.11221
-7.8983459 65.659561 348.68994
-7.9975281 65.629822 349.26736
-8.74646 65.539505 349.88684
-9.2728119 65.449577 351.05804
-9.67836 65.046661 353.83731
-6.9765472 65.540268 354.34875
-10.555466 64.862556 356.7146
-13.115463 64.345123 357.3085
-14.179703 63.945305 358.39078
-7.0320892 65.236221 347.48203
-7.7779541 65.146767 348.1069
-8.1999969 65.087341 348.70685
-8.0764618 65.057549 349.83936
-8.82547 64.968056 350.45743
-9.4256744 64.804993 351.03537
-9.6570892 64.505157 353.83182
-9.7663422 64.474388 354.40503
-9.9877777 64.412628 355.55035
-10.098984 64.381477 356.12247
-13.096298 63.807465 357.30304
-13.211655 63.776154 357.86942
-3.9773254 65.496788 347.42874
-7.4308777 64.633797 348.07877
-7.8539124 64.574692 348.67941
-9.2110748 64.08577 351.5304
-10.174667 63.936531 353.28897
-10.925827 63.848518 353.89603
-9.9675751 63.870781 355.54492
-10.079788 63.839622 356.11703
-12.11705 63.354195 357.25507
-13.0457 63.164116 357.82941
-3.6220245 64.978668 347.39972
-7.4075623 64.09082 348.07355
-7.831665 64.032112 348.67426
-8.2556915 63.973419 349.27341
-8.1341248 63.942047 350.4057
-8.2362671 63.911957 350.98227
-10.896744 63.199913 353.28265
-11.325943 63.141205 353.87115
-11.662491 62.873993 356.6665
-12.097916 62.814896 357.24963
-12.952682 62.588943 357.80667
-4.3634644 64.229691 347.40652
-7.484436 63.517899 348.64667
-8.0097504 63.319687 349.21069
-8.1327057 63.201088 350.91486
-10.02504 62.885666 352.70551
-10.974808 62.521004 353.24048
-11.08403 62.490086 353.81146
-11.643417 62.334236 356.66104
-12.078781 62.275631 357.24411
-12.515121 62.216949 357.82578
-7.115036 63.154457 344.61441
-6.6140747 63.090523 347.43753
-7.0370483 63.032585 348.04025
-7.1362457 63.002502 348.61905
-8.1889648 62.607239 349.74637
-10.00386 62.344749 352.70032
-11.623245 61.794376 356.65555
-12.059586 61.73616 357.23862
-12.496994 61.677834 357.82034
-7.4146576 62.58461 344.63544
-6.1677704 62.603836 346.82831
-6.9156036 62.518764 347.45599
-7.1139069 62.458611 348.61392
-7.2140656 62.42852 349.19238
-10.08287 61.664783 352.65808
-10.291336 61.494755 353.19342
-10.098312 61.619282 355.51218
-11.281937 61.280834 356.6351
-12.040451 61.196579 357.23322
-6.8265991 62.024883 343.98413
-7.5655365 61.941494 344.61639
-6.5674133 62.001995 347.42728
-7.7426605 61.75185 348.0405
-7.1917267 61.884441 349.18726
-7.7940674 61.725418 349.76984
-9.2091217 61.34626 352.07843
-9.31633 61.315453 352.65253
-9.9557343 60.912498 354.86951
-12.021286 60.657009 357.22781
-7.4745026 61.253994 343.97812
-7.8895874 61.198063 344.58304
-8.8638 60.830215 352.05386
-9.2950897 60.773323 352.64731
-9.6226959 60.680141 354.36755
-11.223892 60.268524 354.93094
-13.041946 59.79697 356.62253
-6.1869202 61.095844 343.38068
-7.4502869 60.712265 343.97318
-6.1948547 60.939114 347.39334
-6.6198883 60.882805 347.99667
-6.5943146 60.817692 349.71198
-8.5185547 60.312973 352.02927
-9.3740997 60.092373 352.6048
-9.3820343 60.199963 353.21585
-9.6928253 59.891216 353.71375
-10.126114 59.834846 354.30371
-12.589401 59.31509 356.03513
-13.341995 59.234562 356.6322
-6.5128937 60.351326 343.34811
-7.4261169 60.170536 343.96823
-6.5554199 60.25399 347.95981
-7.1239929 60.143433 348.5575
-7.2250977 60.112923 349.13568
-6.1230927 60.262138 350.82306
-9.348465 59.37381 353.69046
-10.750168 59.244041 354.33307
-13.003738 58.721004 356.61191
-6.6638336 59.708096 343.32947
-7.402832 59.628571 343.96335
-5.5922546 59.868759 347.91656
-8.2570496 59.219826 352.57504
-10.296585 58.758755 353.73901
-12.003403 58.324886 354.8725
-12.116623 58.293312 355.44083
-6.6395874 59.165161 343.32458
-7.3786163 59.086445 343.9585
-4.5554962 59.574291 347.89667
-6.0783081 59.168762 350.81277
-7.5834961 58.724174 352.53165
-8.5201569 58.544224 353.12604
-9.2056427 58.426899 353.71802
-11.9832 57.785843 354.86725
-12.096512 57.754246 355.43558
-12.21077 57.722542 356.00351
-6.6152496 58.622135 343.31976
-7.0313416 58.568123 343.92667
-4.888382 58.824463 347.85934
-6.0746918 58.690353 349.0903
-5.6856232 58.561398 350.7547
-6.1609955 58.590908 351.38705
-7.5621643 58.179062 352.52643
-8.9615021 57.768887 353.65652
-12.07637 57.215099 355.43033
-6.5909882 58.079002 343.31488
-7.0070953 58.025391 343.92188
-6.3807678 57.905724 347.87573
-6.8079071 57.851467 348.47806
-7.2136536 57.657009 352.50204
-8.3023224 57.556065 353.13489
-8.9402313 57.225365 353.65128
-11.089951 56.920727 354.2915
-11.301559 56.751968 354.82303
-11.415756 56.720119 355.3924
-11.646317 56.656425 356.52994
-6.2416382 57.558651 343.28235
-6.6588135 57.505512 343.88995
-6.4585419 57.329418 348.45007
-7.5379486 57.230049 349.0965
-7.1923218 57.111191 352.49692
-7.6286316 57.056995 353.09247
-8.0659485 57.002792 353.68658
-11.169113 56.243393 354.24817
-11.281326 56.211605 354.81781
-10.867355 56.191463 355.92407
-11.627151 56.115936 356.52466
-6.6344452 56.961964 343.88516
-5.578598 56.997715 347.85501
-6.4351654 56.78397 348.44513
-7.1894989 56.708271 349.06909
-6.2978973 56.690575 352.46234
-7.2801666 56.53373 353.0686
-11.606918 55.575497 356.51938
-4.078949 56.979271 343.21442
-5.9601135 56.462391 343.82578
-5.6565552 56.313385 347.81329
-6.0857086 56.260323 348.4169
-6.8410339 56.185387 349.04178
-6.4922485 56.063 352.44772
-7.5859528 55.96595 353.08228
-8.0233154 55.912651 353.67639
-9.6380463 55.520241 354.24466
-9.7512054 55.488464 354.8168
-10.38945 55.161308 355.32697
-10.82695 55.108467 355.91364
-4.003006 56.330875 343.17041
-4.7530365 56.256489 343.80945
-4.7712708 56.085365 347.83463
-5.7341309 55.735554 348.38873
-6.8186951 55.640106 349.03683
-7.1272583 55.47316 352.48166
-7.5234222 55.335587 353.04517
-8.0029449 55.367401 353.67133
-8.6842041 55.124317 354.21811
-10.691452 54.598904 355.33847
-10.923965 54.534691 356.47794
-3.8277283 55.706398 343.12329
-4.8299408 55.573067 343.76926
-5.0252991 55.405666 344.31583
-5.1204224 55.374851 344.8978
-5.2164612 55.344021 345.47943
-4.0855865 55.580101 347.7818
-5.3826904 55.209789 348.36041
-6.4682007 55.115578 349.00928
-7.7469482 54.599812 352.99487
-8.6217041 54.495243 354.18127
-9.0612335 54.442959 354.77225
-3.3962555 55.141098 343.06882
-4.5787964 54.910713 343.70117
-5.0009155 54.859241 344.3111
-5.0959778 54.82832 344.89304
-5.1920776 54.79739 345.47464
-5.0310516 54.682911 348.332
-5.790451 54.6105 348.95886
-6.3188934 54.452908 351.85449
-9.886734 53.767052 353.63654
-9.9049835 53.690731 355.33392
-10.120651 53.522038 355.86557
-2.9384308 54.749687 343.0715
-4.5543976 54.363777 343.69647
-4.9765778 54.312611 344.30643
-5.071579 54.281696 344.88831
-5.1676788 54.250763 345.46997
-3.376297 54.522377 347.72406
-3.8095093 54.470619 348.33154
-5.7670288 54.06345 348.95395
-6.2965088 53.905624 351.84946
-6.8362579 53.716862 352.40833
-9.5313263 53.139565 353.00211
-9.9658051 53.088619 353.59283
-10.630844 52.973545 355.32297
-2.4909058 54.251255 342.45221
-3.2350006 54.024384 343.04071
-4.530014 53.816631 343.6918
-4.9521484 53.765968 344.30176
-5.0471802 53.734959 344.88364
-5.1442261 53.70388 345.46524
-3.3527832 53.971916 347.71924
-3.4538422 53.940575 348.30316
-5.4154663 53.535767 348.92633
-9.0854034 52.751503 353.01691
-9.6222382 52.564686 353.56943
-3.0951233 53.377735 342.98999
-4.1754913 53.288746 343.65915
-4.9277496 53.21912 344.29712
-5.0228424 53.188122 344.87897
-5.1198578 53.156956 345.46054
-3.5323029 53.358444 348.88193
-4.5074463 53.013603 349.43405
-8.4894257 52.283588 352.99316
-9.6010284 52.021763 353.56439
-9.7142487 51.989704 354.13638
-9.8283844 51.957527 354.70801
-3.0696259 52.828545 342.98526
-3.8218689 52.759743 343.62659
-4.9983978 52.641186 344.87427
-3.8419952 52.788647 348.90027
-4.1385956 52.405918 351.13052
-4.6943207 52.454105 351.77628
-8.8198547 51.546108 352.94888
-9.2563324 51.496372 353.5408
-9.6939545 51.446659 354.13132
-9.8081512 51.414371 354.70294
-3.0441589 52.279232 342.98068
-3.7974854 52.211304 343.62201
-4.2216187 52.161751 344.23322
-2.7168732 52.325397 348.24121
-3.6408386 52.051228 348.81491
-6.7458649 51.502846 350.06119
-7.9451141 51.307941 352.98392
-9.2351227 50.952763 353.5358
-9.6726227 50.903423 354.12637
-3.0186462 51.729832 342.9761
-3.4428406 51.680618 343.58932
-3.8670044 51.631458 344.20105
-3.6694946 51.432114 348.79086
-6.7235107 50.956562 350.05634
-8.2755585 50.57045 352.93945
-9.2138214 50.409031 353.53088
-9.6523895 50.36018 354.12137
-2.6630402 51.197704 342.94275
-3.4173431 51.131516 343.58478
-4.2229156 50.997837 344.20563
-2.6697693 51.221275 348.23175
-3.978241 50.864235 348.8096
-5.9384155 50.475571 349.4285
-6.7011414 50.410061 350.05154
-7.1365662 50.281822 352.35953
-8.1052704 49.945938 352.89539
-8.5437469 49.897427 353.48856
-9.3067169 49.832897 354.0983
-2.3108673 50.686241 348.203
-3.1097565 50.443974 348.77579
-5.9160004 49.928078 349.42368
-6.6787262 49.86356 350.04688
-8.197052 49.368217 353.46475
-8.8120422 49.225048 354.03638
-3.0361786 50.049267 343.54749
-3.792572 49.98497 344.18753
-5.1308594 49.444046 348.79327
-6.2218933 49.364601 349.44171
-7.4114532 49.150997 350.04749
-7.0539246 49.076256 352.88651
-8.175705 48.822685 353.45981
-3.1067047 49.467663 344.12769
-2.5028076 49.388145 346.38651
-1.5931396 49.612675 348.14539
-3.2430725 49.244278 348.74838
-5.8711243 48.83268 349.4144
-7.1641846 48.485958 349.98206
-7.6146393 48.274094 353.99191
-2.7499237 48.932941 344.09525
-2.3782806 48.868156 345.79666
-2.4782562 48.836208 346.3819
-1.8956909 48.885902 348.10861
-5.0839539 48.346729 348.78384
-5.8477325 48.284916 349.4097
-6.5042267 48.091167 352.87738
-6.9468231 48.044182 353.47308
-2.059845 48.412083 344.03476
-2.9203033 48.318302 345.2605
-2.4536591 48.28418 346.37732
-2.0899506 48.21756 348.08249
-5.0605316 47.797859 348.77921
-5.6743622 47.656944 349.36389
-6.7920837 47.407906 349.95029
-5.9370575 47.538742 353.41125
-7.065918 47.288948 353.98416
0.37283325 48.282681 342.75613
-2.2531738 47.785717 344.0256
-2.79776 47.799225 344.67142
-2.9991608 47.632748 345.21811
-4.3773499 47.276688 348.72739
-5.1430817 47.216576 349.35468
-6.4422302 46.874737 349.92325
-5.9145966 46.989441 353.40637
0.063247681 47.712933 342.78113
-1.6764221 47.32209 343.99777
-2.041748 47.110756 348.07318
-4.6841583 46.713268 348.7464
-5.1205902 46.667469 349.35007
-6.7472229 46.31451 349.94101
-5.8930511 46.440125 353.40137
-0.3651886 46.906448 342.14252
-0.79240417 46.860748 342.76093
-1.0127716 47.084412 343.45279
-1.9841309 46.756039 344.02158
-1.8132324 46.621834 346.89767
-2.0181274 46.557194 348.0686
-4.9911194 46.150631 348.76547
-5.0971527 46.118309 349.34552
-5.7405243 45.805088 349.86884
-6.8329315 45.735104 350.51324
-5.8625793 45.734226 353.34012
-0.33860779 46.352467 342.13824
-0.76678467 46.307121 342.75656
-1.1959839 46.261883 343.37357
-1.9099884 46.101608 343.97559
-2.7378845 45.943424 345.17401
-1.78862 46.068298 346.8931
-1.9934998 46.003441 348.064
-3.4240265 45.724709 348.67365
-6.1546021 45.212093 350.46472
-0.31196594 45.798306 342.13388
-0.7411499 45.753418 342.75217
-1.1704254 45.708668 343.36926
-2.2408142 45.351307 344.52264
-2.3397675 45.318882 345.10794
-3.6194458 45.099743 348.66132
-4.7207642 45.031395 349.31329
-5.8036804 44.675465 350.43793
-7.2355499 44.510372 352.80783
-0.28633118 45.243977 342.12964
-0.71452332 45.199646 342.74796
-1.1447601 45.155262 343.36499
-1.1715088 44.952091 347.41943
-3.5959167 44.54818 348.65677
-4.5783081 44.326408 349.82648
-6.7725525 44.006714 352.2074
-7.2141571 43.963032 352.80316
-0.3651123 44.555923 342.08759
-0.7943573 44.511959 342.70581
-1.2246246 44.468079 343.32266
-1.98172 44.513931 344.59033
-2.0806732 44.481518 345.17593
-1.0438995 44.42981 346.82825
-1.1468353 44.397152 347.41492
-2.361557 44.196526 348.03574
-3.5722809 43.996601 348.65228
-4.3277893 43.653118 349.75894
-6.3094482 43.501972 351.6055
-7.078598 43.44838 352.22305
-7.192749 43.415607 352.79852
-0.87316895 43.824688 342.66354
-2.776825 43.498631 348.01633
-2.8827972 43.465836 348.59979
-6.1759186 42.986176 351.02377
-6.2870483 42.953484 351.60089
-6.4000397 42.920605 352.17767
-6.5142365 42.887711 352.75415
-0.84759521 43.270878 342.65933
-2.2334137 43.310699 346.33762
-5.8239288 42.447159 350.99753
-0.82092285 42.717102 342.65506
-2.0159912 42.622284 343.91574
-0.871521 42.696442 345.60193
-1.3088684 42.65382 346.2153
-1.7473297 42.611179 346.82739
-2.166626 42.379093 348.54236
-2.08815 42.408672 349.7218
-5.1413727 41.916077 350.94949
-6.3561859 41.823284 352.16846
-0.7953186 42.163082 342.65088
-0.75256348 42.073887 344.38425
-1.054306 41.975109 346.14511
-1.8271484 41.923927 346.78363
-2.6000824 41.872818 347.41943
-2.7050476 41.839947 348.00302
-5.1177826 41.36581 350.94492
-5.5614471 41.324303 351.54483
-6.0041351 41.282936 352.14328
-1.0296326 41.420151 346.14075
-2.1369934 41.361351 346.80518
-2.9375153 41.137531 347.37897
-3.4519501 41.137436 348.00821
-3.5590057 41.104454 348.59024
-5.0953674 40.815525 350.9404
-6.3122864 40.725544 352.1593
-0.63844299 41.186947 342.68079
-1.2722626 40.980579 343.84604
0.41464233 41.122021 344.32928
-0.48493958 40.964806 346.12714
-2.2179413 40.675362 346.76126
-3.0934143 40.494125 347.35645
-3.6389618 40.420208 348.54587
-3.7469788 40.387104 349.12729
-4.4096069 40.280128 350.89191
-4.9682922 40.20631 352.0719
-4.3175049 40.129181 353.74811
1.7589417 40.788517 343.09634
0.33390808 40.432537 344.28589
-0.30619812 40.32526 346.07846
-1.7532196 40.261604 346.77072
-3.6154022 39.868237 348.54144
-4.7196655 39.721439 350.90945
-4.8317108 39.688366 351.48862
-4.6276398 39.569553 353.7627
1.6879272 40.196934 343.68359
0.022171021 39.868538 344.31036
-0.077835083 39.835331 344.89859
-2.1686859 39.568192 346.75256
-2.7127533 39.39608 347.32233
-2.8186951 39.362885 347.90546
-2.9256439 39.329681 348.48825
-3.4927063 39.546883 349.19922
-4.0318451 39.183529 350.8609
-3.8226624 39.063492 353.13931
-4.6060791 39.017323 353.758
0.14768982 39.345539 343.71774
0.047851563 39.312225 344.30615
-0.052047729 39.279022 344.89432
-1.8601685 39.039104 345.55704
-2.3545685 38.849339 347.29233
-2.7950745 38.809826 347.90109
-2.9020996 38.776516 348.48386
-3.1200562 38.710007 349.64859
-3.4560242 38.610092 351.39313
-3.5690308 38.576733 351.97391
-3.6840363 38.543423 352.55447
-3.8001099 38.51009 353.13461
-4.5854797 38.464878 353.75345
0.17341614 38.789116 343.71371
-1.0350037 38.70401 344.97406
-2.3506775 38.389717 345.5629
-2.4536133 38.356495 346.14679
-2.5585175 38.323242 346.73041
-2.6635742 38.289886 347.31375
-2.7704468 38.256584 347.89679
-2.8784637 38.223335 348.47958
-2.4399567 38.365479 350.84552
-3.5463867 38.023335 351.96936
-3.6624756 37.989899 352.54984
-3.7784576 37.956566 353.12994
-0.39239502 38.058685 341.92709
-0.27714539 38.287647 342.59259
0.099258423 38.199398 344.298
-1.1147919 38.017738 344.93042
-2.3260498 37.836571 345.55881
-2.4289703 37.803272 346.14258
-2.5339355 37.770008 346.72623
-2.6398621 37.736626 347.30957
-2.7468719 37.703304 347.89255
-2.8548584 37.669983 348.47528
-2.9638214 37.63662 349.05762
-3.0737762 37.603222 349.63977
-2.8575439 37.67342 350.8219
-2.8543854 37.47982 351.92215
-3.6397858 37.436398 352.54523
-3.7557983 37.402969 353.12534
-4.2075348 37.364609 353.72458
-0.3657074 37.503792 341.92319
-0.79714966 37.465282 342.54105
0.46357727 37.648003 344.2652
-1.5303192 37.326569 344.9147
-2.3004456 37.283352 345.55469
-2.4043121 37.250011 346.13849
-2.5093536 37.216671 346.72205
-2.6152649 37.183273 347.3053
-2.7222748 37.149864 347.88828
-2.8302307 37.116516 348.47098
-2.9391327 37.083157 349.05331
-2.6037903 36.992146 350.7536
-2.8317413 36.92522 351.91763
-3.2824707 36.887218 352.5199
-3.7341919 36.849243 353.12076
-3.8512726 36.815884 353.70038
-0.33906555 36.948715 341.91925
-0.43589783 36.915215 342.50681
-0.62333679 37.043224 344.93408
-1.9421844 36.734451 345.52322
-2.4853058 36.566128 346.09421
-2.4846954 36.663216 346.71793
-2.5906525 36.629848 347.30115
-2.5819397 36.533665 349.02496
-2.9158783 36.433372 350.77167
-2.9250488 36.336864 352.49451
-4.1499329 36.160503 353.0939
-0.41023254 36.360001 342.50287
-0.70787048 36.259342 344.26382
-1.480011 36.217896 344.90662
-2.1136322 36.016705 348.41312
-2.5572815 35.97953 349.02066
-2.5574951 35.882557 350.74463
-2.901474 35.781998 352.48987
-0.047958374 35.808292 342.46841
-0.58132935 35.737431 343.67313
-0.68215942 35.703827 344.25983
-1.4543304 35.663395 344.90262
-1.891922 35.626396 345.51514
-2.5424347 35.522499 347.29291
-2.1988983 35.428452 348.99222
-2.1981049 35.330811 350.71768
-2.0912781 35.266602 351.86105
-3.6190643 35.134068 352.4989
-0.20384216 35.164753 342.44833
-0.55560303 35.181911 343.66922
-0.65647888 35.148216 344.25586
-0.75840759 35.11459 344.84229
-1.5316162 35.075134 345.48361
-2.2236176 34.864399 346.05048
-2.5164337 34.87236 346.66516
-2.6234283 34.838749 347.24808
-2.7313538 34.805107 347.83066
-2.1752319 34.873489 348.98798
-1.953598 34.744171 351.27377
-2.4043579 34.708038 351.87811
-3.2975159 34.53886 352.45923
-1.9758301 34.391403 343.11859
-0.83660889 34.525085 345.42447
-1.9290924 34.193161 346.56735
-2.3696594 34.157413 347.17715
-2.8113556 34.12167 347.78561
-3.7020569 33.951366 350.71548
-1.9299469 34.188099 351.26935
-1.9511719 33.838139 343.11487
-2.052124 33.804302 343.69916
-0.91578674 33.935463 346.00626
-2.787735 33.568016 347.78149
-3.5644379 33.43177 350.13092
-4.012207 33.396767 350.73376
-0.36775208 33.355305 342.99585
-2.3581238 33.24966 343.72446
-0.9960022 33.345612 346.58762
-1.3161774 33.052269 347.0903
-2.4293518 33.015259 347.75183
-2.990387 33.042633 349.564
-3.5418243 32.878456 350.12665
-3.9886627 32.843979 350.72943
-1.2325897 32.732788 343.04742
-1.66716 32.698147 343.66205
-2.1027527 32.663486 344.27542
-1.7351837 32.461971 347.69635
-3.0723724 32.359169 349.51816
-3.5182495 32.325092 350.12238
-1.3068085 32.144238 343.62878
-2.0771027 32.109859 344.27161
-2.9358063 31.838938 348.93268
-3.0487518 31.805075 349.51401
-3.4955902 31.771475 350.11816
-0.61167908 31.588953 343.5658
-1.7177734 31.555704 344.23892
-2.489151 31.52244 344.87964
-1.1387329 31.608854 347.74567
-2.5782928 31.284243 348.90405
-3.0251007 31.250998 349.5098
-3.1381378 31.217245 350.0907
0.086502075 31.031469 343.50244
-1.6920776 31.00128 344.23517
-2.4635162 30.969015 344.87585
-1.4362335 30.760351 348.24231
-2.5537109 30.729597 348.8999
-3.0014954 30.696821 349.50568
-3.1154938 30.663034 350.08649
-0.223526 30.475798 343.5285
-2.1059113 30.320461 344.21991
-2.6473083 30.160202 344.79102
-2.9813385 30.255318 345.44183
-2.1951752 30.173229 348.87122
-2.9778748 30.14255 349.50156
-3.1965027 29.98041 350.03989
-2.1849213 29.639145 344.17572
-2.6226654 29.606966 344.78717
-3.0604553 29.574909 345.39737
-1.8355865 29.615702 348.84247
-2.2844391 29.583872 349.44943
-2.1603088 29.085291 344.172
-2.5971069 29.053642 344.78348
-3.0357971 29.022053 345.39359
-1.8119507 29.059725 348.83844
-1.3631287 28.559769 343.52554
-2.1346588 28.531466 344.16827
-2.2396088 28.497118 344.75122
-3.0102081 28.469135 345.3898
-0.77653503 28.494133 348.75955
0.43751526 28.346193 343.50449
-1.7751465 27.973927 344.13538
-2.2139587 27.943096 344.74756
-2.3199158 27.908829 345.33011
-0.75180054 27.936483 348.75555
0.24401855 27.68784 343.48013
-1.0808563 27.411207 344.07306
-1.5205688 27.380814 344.6864
-2.2952576 27.354673 345.32642
-0.39006042 27.374424 348.72653
0.050460815 27.030485 343.45575
-1.0551147 26.85548 344.06943
-1.4958649 26.825565 344.68271
-1.9356842 26.795807 345.29459
-0.70423889 26.820726 348.74765
-0.25520325 26.742743 349.86752
0.082092285 26.319111 343.39075
-0.6945343 26.294577 344.03635
-1.1353607 26.265152 344.65021
-1.5771332 26.23572 345.26266
-0.23136902 26.183666 349.86337
0.10881042 25.761713 343.38715
-0.43780518 25.69791 344.58853
-1.2164917 25.674593 345.23068
0.021240234 25.69318 348.68936
-0.20758057 25.624496 349.85931
0.47148132 25.19809 343.35324
0.029724121 25.169376 343.96982
-0.4120636 25.140789 344.58487
-0.85591125 25.112368 345.19855
-1.6346741 25.090195 345.83853
-0.29295349 25.140175 348.71054
0.16137695 24.646498 343.38004
0.05645752 24.611788 343.96619
-0.38632202 24.583664 344.5813
-0.83016968 24.555643 345.19495
-1.2739716 24.527761 345.80704
0.069869995 24.574551 348.6814
0.082290649 24.053959 343.96265
-0.36054993 24.026342 344.57767
-1.6900787 23.853319 345.78912
-0.24533081 24.022415 348.70267
-0.99221802 23.191256 345.10333
-1.108429 23.338121 346.93933
-0.32731628 23.337166 348.65546
-0.30905151 22.911489 344.57059
-1.0836334 22.781073 346.93555
-0.41027832 22.652195 348.60812
0.15953064 22.380081 343.95215
-0.39007568 22.228941 344.52484
-0.83494568 22.202993 345.13834
-1.1330109 22.215736 345.755
-0.47111511 21.546801 344.47916
-0.91500854 21.521379 345.09244
-1.0249786 21.486464 345.67609
-1.1349335 21.451653 346.2594
-0.022628784 21.525028 348.5748
1.567215 21.224768 343.82504
-0.8903656 20.964424 345.0889
1.2540436 20.674576 343.85181
0.36228943 20.535761 344.45563
-0.19143677 20.386614 345.02753
-0.97447205 20.372585 345.66891
0.3651123 20.39546 348.54138
0.17137146 19.817471 344.9949
-0.61262512 19.804495 345.63687
0.86982727 19.298183 347.92233
1.5638275 18.858444 343.76877
0.88465881 18.971008 344.45837
0.66795349 18.811928 345.00165
0.1131134 18.664965 345.57275
1.2358246 18.725182 347.89212
1.4818573 18.17408 343.72263
1.3739777 18.138748 344.30972
0.4760437 18.093513 345.54065
1.2607269 18.163725 347.88837
0.80366516 18.141634 348.50034
1.7400055 17.565117 344.27621
1.2856598 17.602285 347.88458
0.48730469 17.593758 348.52237
2.1079865 16.99045 344.24265
0.63760376 17.00952 344.94824
0.52670288 16.97443 345.53363
0.41485596 16.939316 346.11868
0.40879822 17.027767 346.7471
0.96838379 17.054348 347.90741
0.85238647 17.019506 348.49274
1.7927246 16.442892 344.26938
0.6633606 16.449881 344.94489
0.55250549 16.414696 345.53021
0.32675171 16.344519 346.69986
1.1392822 15.910817 344.32599
0.5813446 15.767541 344.89795
0.36256409 15.609641 345.43933
0.35154724 15.784774 346.69632
1.5043182 15.335349 344.29279
0.37741089 15.224956 346.69269
1.8714142 14.758746 344.25928
0.7399292 14.770377 344.93475
0.62901306 14.735198 345.51987
0.5161438 14.700063 346.10464
0.4022522 14.664998 346.68918
1.8973083 14.197121 344.25595
1.3373413 14.055861 344.82874
0.73713684 14.001569 345.43869
0.43309021 14.017887 346.05725
0.42709351 14.104939 346.68573
2.2644501 13.618816 344.2225
0.23709106 13.300994 346.59366
2.1795349 13.020953 344.80664
0.59068298 13.01968 346.09442
2.5477142 12.44078 344.77356
1.1456146 12.320206 345.4071
1.1813354 12.388425 346.61963
2.1454773 11.29812 345.38354
2.1422424 11.173181 347.11511
3.0856171 10.641499 345.88055
2.1672058 10.610023 347.11163
3.4559937 10.057069 345.84811
2.6514282 10.061885 346.49341
2.5345154 10.026578 347.08038
3.4809875 9.492115 345.84476
2.6763611 9.4980307 346.48999
2.5594788 9.462719 347.0769
3.5059509 8.9271603 345.84149
2.785614 8.7590246 346.40723
2.5093079 8.1292877 346.39267
3.671814 7.8325577 345.24634
3.4729614 7.1116676 345.78613
3.0127106 7.0990124 346.40256
4.4146881 6.6554251 345.1803
3.3889923 6.4267216 345.73743
2.9286652 6.4146185 346.35367
4.2206726 5.8495369 345.08624
3.3049469 5.742506 345.68829
2.5011292 5.7549706 346.33316
5.8525085 4.5328321 333.73984
5.1869049 4.5111122 334.3884
5.1025696 4.5528831 335.61353
4.8938293 4.3980284 336.16202
4.0003357 4.2931881 336.7858
4.0086823 4.3731794 337.41815
4.015976 4.4534035 338.05063
3.5817871 4.3334818 339.22473
5.0209808 4.2358856 342.0766
4.6428528 4.1769371 342.67361
4.6411896 4.2591658 343.30853
2.8480225 4.2627935 344.01288
0.88591003 4.0261021 345.20898
2.3598633 3.9449203 348.66162
1.3924255 4.057992 349.34659
-0.82821655 3.8925636 349.95914
-1.5691986 3.9410198 350.59824
-2.0287476 3.8060157 351.14496
-2.0507202 3.8897989 351.76892
-2.285965 3.7378614 352.29837
-2.2058105 3.9401844 352.96933
-2.5130615 3.7096541 353.46603
-2.9370728 3.8330848 354.11768
-3.4887238 3.6550367 354.64148
-3.6228638 3.6217048 355.21484
-4.289444 3.6838467 355.84161
4.7803192 3.565635 341.44598
4.6695862 3.5290167 342.03592
3.6442871 3.472214 343.86682
1.3230743 3.2928903 348.66656
1.2001801 3.2579954 349.24951
-13.422897 -7.6100922 345.03217
-13.653915 -7.5630112 345.65161
-14.631973 -7.6189747 347.38126
-14.903336 -7.7569847 347.87097
-15.176712 -7.8947058 348.35962
-15.172043 -7.8341961 348.97354
