ply
format ascii 1.0
comment PCL generated
element vertex 1594
property float x
property float y
property float z
element camera 0
property float view_px
property float view_py
property float view_pz
property float x_axisx
property float x_axisy
property float x_axisz
property float y_axisx
property float y_axisy
property float y_axisz
property float z_axisx
property float z_axisy
property float z_axisz
property float focal
property float scalex
property float scaley
property float centerx
property float centery
property int viewportx
property int viewporty
property float k1
property float k2
end_header
17.880785 118.9677 352.48669
10.833022 117.52917 354.55121
11.449687 117.69759 354.56329
12.044887 117.60694 355.02032
12.664617 117.68376 355.38159
16.718266 117.77363 354.66461
18.419773 117.14514 356.27353
10.850747 116.97246 354.51743
11.452539 116.79257 355.31882
12.041424 116.79114 355.43152
16.146349 117.30825 354.16476
16.736811 117.03369 355.3284
17.793285 116.07294 357.0083
18.374798 115.89105 357.81885
19.538183 115.87833 358.06992
10.881088 116.23817 355.17438
11.443761 116.06709 355.3848
12.042582 115.88925 356.18423
16.136566 116.48702 354.58075
16.697603 116.13422 355.49579
17.810301 115.42877 357.32004
19.555679 115.32242 358.03915
10.295532 115.86029 354.33926
16.127075 115.66879 354.99692
16.715233 115.57541 355.4639
17.827765 114.87289 357.28827
18.993296 114.8613 357.53845
10.32021 115.21623 354.65189
10.916699 115.12674 355.10693
12.051511 114.61108 356.21564
16.73283 115.01756 355.43207
17.261698 114.41051 356.79056
17.845318 114.31801 357.25766
19.010746 114.30538 357.50772
10.322742 114.51833 354.7984
10.908023 114.40229 355.17197
12.069229 114.0563 356.18295
16.161057 114.6397 354.58469
16.749973 114.5472 355.05371
17.279318 113.85368 356.75876
17.862753 113.76216 357.22592
19.029858 113.83589 357.13235
19.610249 113.7431 357.60352
10.302769 113.76639 354.7818
10.899134 113.67781 355.23795
12.087052 113.50157 356.14929
16.178677 114.07988 354.5527
16.76833 113.90086 355.36829
17.296768 113.29786 356.72702
17.880367 113.20634 357.19418
19.04418 113.1073 357.78888
10.910416 113.20831 354.85968
11.511613 113.03452 355.65942
16.196428 113.52109 354.51981
16.786034 113.34303 355.33649
17.313856 112.91275 356.00604
10.928187 112.65159 354.82596
11.529438 112.47974 355.6268
16.21417 112.96127 354.48788
16.803095 112.87067 354.95801
17.332186 112.09979 357.00812
10.428752 113.19806 352.54782
10.952559 112.01065 355.13675
11.547281 111.92403 355.59305
15.641428 112.4929 353.98685
16.231909 112.40241 354.45593
16.820833 112.31184 354.92612
17.349598 111.62827 356.63272
17.903166 111.28559 357.54349
19.035631 111.01971 358.23706
10.41985 112.46957 352.61359
10.992513 112.2141 353.17252
11.553409 111.53673 354.87109
15.591726 110.58703 357.70505
16.251141 111.75808 354.77164
16.779436 111.41422 355.09567
17.367371 111.07143 356.60095
17.891176 110.64513 357.26883
19.054541 110.54803 357.86456
10.410872 111.74109 352.67932
11.00734 111.34628 354.0162
11.571273 110.98001 354.83728
15.049915 110.37138 356.76852
10.432924 111.464 351.87839
11.007633 110.84455 353.55112
11.589151 110.42323 354.80444
14.457265 109.57159 357.05789
15.043894 109.48443 357.52023
15.598139 109.31261 357.73975
16.180767 109.30645 357.86224
17.926462 109.61568 356.86353
10.432471 110.79065 351.91217
11.046578 110.5369 353.07175
11.601234 109.94878 354.42593
12.190856 109.94629 354.53961
12.780182 109.94269 354.65518
14.481278 109.15525 356.64951
15.032822 108.76384 357.58749
15.615838 108.75877 357.70807
16.198374 108.7526 357.83063
17.94405 109.05983 356.83182
18.527113 109.05246 356.95828
10.437198 109.89508 352.67831
11.036924 109.80941 353.13754
11.619128 109.39205 354.39215
12.208893 109.38852 354.50674
14.512095 108.87337 355.86526
15.050459 108.21003 357.55493
15.633463 108.20493 357.67651
16.215998 108.19878 357.79907
10.468783 109.66924 351.84421
11.027069 109.08283 353.20444
11.637134 108.83433 354.35837
12.226852 108.83079 354.4729
14.514741 108.09805 356.35687
15.065517 107.73633 357.18137
15.651213 107.65009 357.64481
16.233713 107.64494 357.76743
9.8921165 109.1108 351.69858
10.494068 109.02605 352.15985
11.051805 108.4427 353.51834
12.222043 108.02592 354.8848
14.495899 107.26662 356.68723
15.080458 107.26165 356.80783
15.664624 107.25562 356.92834
21.591991 108.57804 353.47955
9.9180527 108.46861 352.01431
10.491419 108.21695 352.57651
11.07965 108.10376 352.95413
15.098145 106.70685 356.77518
15.682267 106.70079 356.8967
16.265947 106.69465 357.0192
21.019175 107.94079 353.66995
9.9283819 107.98944 351.62955
11.087896 107.32626 353.4516
11.68522 107.24245 353.91202
12.280944 107.15855 354.37341
14.557382 106.40209 356.17905
15.115931 106.15104 356.74341
15.700036 106.14495 356.86496
16.306442 106.09297 357.60559
16.867035 106.13255 357.11197
20.4447 107.22389 354.20926
9.9466133 107.42875 351.59555
10.514327 106.77094 353.30417
11.106013 106.76755 353.41766
11.709314 106.60542 354.22406
15.128094 105.75265 356.02472
16.299932 105.66222 356.61276
16.884724 105.57772 357.08032
18.050108 105.72062 356.6442
9.9446154 106.62065 352.01218
10.525117 106.29163 352.92236
11.124115 106.20882 353.38382
11.692842 105.96013 353.94519
15.731174 105.19077 356.1145
16.317627 105.10637 356.58102
16.902645 105.02189 357.04858
18.067757 105.08545 356.95651
9.9345989 105.89304 352.08005
10.53588 105.81133 352.5405
11.142231 105.65012 353.34991
15.190843 104.88428 355.51431
15.748963 104.63393 356.0827
16.335472 104.55054 356.54929
16.920368 104.46603 357.01685
10.554031 105.25163 352.50656
11.150239 104.8777 353.84564
11.763805 104.93219 354.12454
15.25802 104.97098 353.89349
15.766844 104.07716 356.04993
16.351685 104.07098 356.1734
16.938227 103.91119 356.98517
10.572258 104.69193 352.47256
12.951172 104.52092 353.6297
15.754085 103.35538 356.11914
16.369612 103.51415 356.14163
17.537853 103.50053 356.39264
10.590487 104.13221 352.43863
11.190085 104.05138 352.90015
12.920784 103.47667 354.49173
16.329441 102.47598 356.99823
11.17922 103.32574 352.96811
12.338564 103.07531 353.64816
12.944041 102.84264 354.80405
15.241048 102.26334 356.51849
11.168305 102.60107 353.0361
11.766253 102.52118 353.49878
12.362432 102.44123 353.96146
12.957042 102.36112 354.42609
14.647914 101.47565 356.80655
15.204207 101.23049 357.37137
16.426731 101.69512 356.7338
11.193592 101.96703 353.34937
11.784355 101.96247 353.46487
12.380607 101.88345 353.92859
12.958743 101.64325 354.69067
14.639095 100.68286 357.21622
11.204695 101.48267 352.96826
11.802577 101.40375 353.431
12.933542 100.91582 354.56137
15.267252 100.35883 356.86569
23.080606 102.67254 350.68488
11.222873 100.92393 352.93439
11.827188 100.77069 353.74426
12.42275 100.69266 354.20804
14.120864 99.993187 355.98315
14.667699 99.71946 356.46826
15.251745 99.713295 356.59079
21.841026 101.63018 351.3089
23.098646 102.10467 350.65341
23.689159 102.09482 350.79068
9.496232 100.92769 351.30829
10.091029 100.92438 351.42084
10.700426 100.77206 352.23367
11.241177 100.36427 352.90042
11.827714 100.07854 353.89417
12.405179 99.867203 354.53973
14.101111 99.170731 356.31403
14.685663 99.164223 356.43652
15.269744 99.157478 356.55905
17.077333 99.754684 355.35492
9.5146475 100.36699 351.27426
10.109449 100.36269 351.38672
10.71873 100.21237 352.19971
11.259389 99.80455 352.86646
11.81051 99.253426 354.2269
12.405303 99.175987 354.68872
14.17191 99.086319 355.39352
17.097782 99.052032 356.01382
21.91116 100.66567 351.14133
22.50124 100.65691 351.27664
23.056221 100.47884 351.51779
8.9285698 99.882111 350.77646
9.533082 99.805344 351.2392
10.085392 99.326797 352.25525
10.67826 99.322433 352.36975
11.27772 99.245445 352.83252
11.852109 98.932014 353.74469
12.429389 98.547333 355.00024
13.603684 98.53569 355.23923
14.159267 98.365707 355.46176
14.714211 98.195389 355.6853
15.299467 98.188583 355.80777
15.884252 98.18145 355.93222
16.47051 98.103012 356.40112
23.074257 99.911903 351.4874
8.9470043 99.320724 350.7424
9.5515432 99.24437 351.20517
10.704254 98.690598 352.68311
11.870424 98.373535 353.71176
15.314243 97.702606 355.43152
15.902224 97.624718 355.90045
16.488543 97.5467 356.36932
8.9654999 98.75898 350.70734
9.536644 98.416054 351.53973
10.12211 98.206886 352.18729
10.722604 98.130997 352.64911
11.91231 98.049767 353.23041
14.213842 97.627769 354.25781
15.920334 97.067909 355.86865
16.504618 97.060394 355.99408
20.669437 98.04406 353.21796
9.5383215 97.722168 351.68942
10.140461 97.646828 352.15231
10.74103 97.571411 352.61517
11.930749 97.490479 353.1965
12.497394 97.769417 351.91833
13.686576 97.686966 352.50659
14.232082 97.069054 354.22589
14.760659 96.664894 354.89801
15.350328 96.58812 355.36691
15.93832 96.51104 355.83588
16.556047 96.596931 356.20569
18.27146 96.759361 354.96344
18.856255 96.750984 355.09384
8.9932003 97.706444 350.2858
9.5567503 97.161682 351.65546
10.158934 97.086777 352.11835
10.759425 97.011703 352.58118
12.466173 96.738655 352.78925
13.704934 97.125717 352.4736
14.246015 96.580307 353.84549
14.850985 97.019295 352.47095
15.36844 96.030746 355.33408
15.956446 95.954109 355.80408
18.289045 96.269875 354.58496
18.8743 96.191544 355.06192
8.9784393 96.878136 350.62231
9.5752563 96.601013 351.62039
10.155661 96.293755 352.53387
10.747753 96.288834 352.64935
12.478219 96.248177 352.4068
13.075282 96.172546 352.87473
13.642748 95.288734 355.9646
14.264348 96.020882 353.8136
14.837376 96.293076 352.54092
16.554697 95.52684 355.20856
7.8106756 94.653786 355.45197
8.4273634 94.810196 355.46332
10.170102 95.903748 351.88474
12.489951 94.746002 355.69095
13.07566 94.73954 355.81143
15.401405 94.983826 354.92484
15.987291 94.976357 355.05023
18.325535 95.08123 354.86865
18.910349 95.072487 355
7.8289824 94.09993 355.41736
8.4167213 94.095314 355.5289
10.167029 95.380356 351.41946
11.921949 94.196541 355.53873
12.50807 94.190346 355.65826
13.104633 94.049728 356.46292
14.866046 95.307869 351.77371
15.422854 94.358055 355.23761
17.756243 94.666489 354.01205
18.343718 94.521652 354.83771
19.512674 94.504051 355.1004
7.2591419 93.550407 355.27225
7.8473215 93.545853 355.38275
8.4350452 93.541206 355.49527
11.353629 93.64695 355.38657
11.940266 93.64093 355.505
12.513872 93.438583 356.14813
13.122993 93.494965 356.43027
17.776588 93.970512 354.67633
18.361765 93.962006 354.80576
7.266315 93.062065 354.8959
7.8656602 92.991814 355.34811
8.4533834 92.987053 355.4606
9.6277256 92.976738 355.68866
11.364668 93.157532 355.01019
11.958583 93.085182 355.47229
17.205643 93.553543 353.81964
17.793587 93.478081 354.29669
18.379917 93.402336 354.77478
7.2846413 92.507507 354.86127
7.8840766 92.437622 355.31445
8.4717865 92.432755 355.42697
9.0591774 92.42762 355.54047
9.6461287 92.422241 355.65497
11.383063 92.601326 354.97635
11.976778 92.52948 355.43857
12.563022 92.522911 355.55899
13.148686 92.516235 355.67944
17.223953 92.992859 353.78763
17.81188 92.917862 354.26471
7.3030891 91.952858 354.82663
7.902432 91.883385 355.27979
8.4901724 91.878426 355.39233
9.0775471 91.873299 355.50586
9.6645145 91.867775 355.62033
11.401397 92.044998 354.94263
11.995189 91.973503 355.40582
13.167036 91.960251 355.64673
14.906158 92.200081 354.63806
15.492456 92.192528 354.76346
17.242109 92.432114 353.75565
17.828888 92.423767 353.88498
7.3102574 91.462219 354.4502
11.412538 91.553177 354.56607
13.760706 91.526497 355.04791
14.924488 91.641724 354.60516
15.510787 91.634048 354.73059
17.260298 91.871391 353.7236
17.847155 91.862823 353.85297
19.641485 92.264046 352.74271
20.260927 92.285789 353.47543
11.416075 91.124741 353.84274
12.018598 90.989807 354.65176
12.605836 90.983047 354.77219
13.774033 91.033562 354.67026
14.942804 91.083199 354.5733
15.529149 91.075447 354.69867
18.450493 91.423691 353.2536
19.037504 91.414703 353.38495
19.624046 91.405533 353.51727
6.7224088 89.912025 355.15448
7.3515368 90.00367 355.50452
7.9198985 89.776833 356.05707
8.5061007 89.771378 356.17062
11.43457 90.566605 353.80893
12.030203 90.496384 354.27313
13.199849 90.54673 354.16919
13.792391 90.475693 354.63742
14.928495 90.363297 354.64261
17.820679 90.159973 355.38477
18.437979 90.312729 355.4129
6.7647653 89.234138 355.79953
7.3517423 89.229012 355.91095
7.9383245 89.223724 356.02347
8.5245581 89.218155 356.13705
12.041903 90.001968 353.89447
12.630208 89.995255 354.01486
17.840019 89.538315 355.69778
6.783237 88.681084 355.76492
7.3701839 88.675949 355.87646
8.5429859 88.664925 356.10242
12.642369 89.499817 353.6351
13.236616 89.429703 354.10336
13.824192 89.422455 354.2258
14.411299 89.414978 354.35019
17.274834 88.989296 355.53558
17.838455 88.727631 356.53806
6.7896795 88.188988 355.38947
7.3886261 88.122696 355.8418
8.5614128 88.111496 356.06879
12.654567 89.003174 353.25528
13.255175 88.87117 354.0705
13.842706 88.86393 354.1929
14.397002 88.695694 354.41953
16.706718 88.502029 355.02942
17.293039 88.431183 355.50372
17.812399 87.915985 356.87167
6.8082156 87.635216 355.3548
7.4071441 87.569458 355.80728
8.5695992 87.618538 355.69333
12.673115 88.443588 353.22134
13.262233 88.436455 353.34372
14.382721 87.976624 354.48996
16.140179 87.952065 354.86911
16.725098 87.94339 354.9975
17.311384 87.873009 355.47287
6.8147602 87.141266 354.98022
7.4028521 87.135971 355.09174
7.9905515 87.130333 355.20523
8.5778685 87.124535 355.3187
13.28066 87.876671 353.30972
13.869427 87.869301 353.43307
16.186275 87.677109 354.03888
16.723999 87.196716 355.49384
17.299461 87.033401 356.23138
6.833313 86.586967 354.94461
7.421392 86.581398 355.0571
8.0090752 86.575699 355.17056
8.5964098 86.569809 355.285
12.697298 87.44632 352.45847
13.260436 87.217506 353.03207
13.887962 87.309326 353.40012
16.189095 87.144402 353.57895
16.732798 86.545929 355.72415
6.8276591 86.150543 354.22693
7.4283986 86.085999 354.68042
8.0276461 86.021042 355.13586
8.6149349 86.015068 355.25034
9.20189 86.008911 355.36581
14.442627 86.24131 354.73633
16.198214 86.216087 355.11746
16.722097 85.709488 356.48389
7.4354095 85.589493 354.30261
8.0462456 85.4664 355.10123
8.6335516 85.460297 355.21564
9.1893148 85.296394 355.43259
9.7756491 85.289818 355.55002
10.361632 85.283035 355.66745
13.880376 85.631973 354.92319
14.446804 85.288368 356.18027
16.185757 85.439011 355.53311
16.759573 85.337708 355.92563
7.4424872 85.091873 353.92587
8.0648785 84.911575 355.0665
13.893517 85.133141 354.54523
14.427472 84.632057 355.90677
16.173351 84.664047 355.94675
7.4727602 84.477753 354.23419
8.061635 84.471771 354.34763
8.6708174 84.35038 355.14731
9.25776 84.343964 355.26376
13.861917 84.084221 355.74866
14.445824 84.075745 355.87503
15.029275 84.067177 356.0014
6.3381152 83.819283 354.65875
6.8958673 83.65696 354.87173
7.4529209 83.49427 355.08563
9.2278881 83.617218 355.13654
9.8313503 83.624985 355.44794
11.540276 83.559647 355.22333
12.158449 83.709793 355.24323
12.717739 83.487389 355.80933
13.880266 83.52784 355.71591
14.464206 83.519379 355.84225
15.047656 83.510796 355.96863
6.3441277 83.321007 354.28091
6.8960996 82.88987 355.27771
9.2121611 83.032387 354.71384
9.8183298 82.913078 355.51471
12.144494 82.995865 355.31195
12.736195 82.931602 355.77664
14.48268 82.962921 355.80951
15.066147 82.954178 355.93689
6.9147434 82.335823 355.24304
12.162921 82.439537 355.27817
12.75474 82.375793 355.74384
14.506002 82.350578 356.11902
5.7765141 82.0933 354.28046
6.3637733 81.998634 354.65424
6.9334173 81.781715 355.20743
9.2492838 81.920525 354.64438
9.8365822 81.913399 354.76279
11.607396 82.069962 354.59634
12.181469 81.883255 355.24442
12.773317 81.819832 355.71011
14.524427 81.794518 356.08624
5.7634439 81.293961 354.6076
6.3518457 81.287918 354.72006
6.9521232 81.227486 355.17273
8.1147089 81.268799 355.06137
11.606647 81.389542 354.74594
12.200141 81.326775 355.21161
13.381958 81.200806 356.1441
6.3705678 80.733238 354.68436
6.9585595 80.726936 354.79779
8.1556692 80.606071 355.70831
11.030258 80.894722 354.24738
11.6157 80.51355 355.84161
12.20722 80.451569 356.30545
12.800867 80.272713 357.33234
5.8048205 80.447098 353.75208
6.3893685 80.178291 354.64966
6.9772983 80.172043 354.76208
8.1744051 80.051949 355.67368
11.082503 80.122215 355.58505
11.609222 79.749184 356.24988
12.200084 79.68779 356.71375
12.789097 79.626427 357.17654
5.7927141 79.735497 353.81885
7.6070843 79.504662 355.52359
8.2041388 79.445152 355.97836
11.092853 79.619804 355.20892
11.635709 79.141983 356.5567
12.218576 79.133682 356.68011
12.801019 79.125099 356.80447
6.4342575 78.757416 355.70007
7.5864 78.537689 356.36795
8.2339754 78.839302 356.28409
11.078536 78.908028 355.2767
11.646411 78.639816 356.18359
12.237085 78.579315 356.64743
12.819529 78.570724 356.77182
6.4219174 78.049927 355.76508
11.657088 78.136505 355.80939
12.255716 78.025024 356.6138
12.838129 78.016319 356.73819
6.4406953 77.496689 355.7305
7.6002049 77.533516 355.62085
11.140797 78.002724 354.76511
11.675755 77.581093 355.7757
12.259628 77.572716 355.89905
12.856776 77.461853 356.70551
5.8924203 77.239075 354.88177
6.4594717 76.943413 355.69489
7.6189866 76.979485 355.58621
9.3767862 77.263412 354.8143
9.9727888 77.204895 355.27518
11.109968 77.034019 355.61957
11.69439 77.025612 355.74197
12.278311 77.017113 355.86533
12.861792 77.008385 355.99072
5.878571 76.446419 355.20734
6.4653139 76.439568 355.32077
7.051753 76.432564 355.43518
7.6378288 76.425346 355.55161
9.3627682 76.552788 354.88113
9.958724 76.49472 355.34311
11.704999 76.520248 355.3667
12.880429 76.452721 355.957
5.8974133 75.892372 355.1727
6.4842167 75.885544 355.2861
7.070611 75.878441 355.40054
7.656579 75.871269 355.51593
9.3815279 75.996826 354.84644
9.9775114 75.939285 355.30835
11.097438 75.515862 356.43668
11.715673 76.013779 354.9903
12.892338 75.946678 355.58163
5.8889527 75.435982 354.45691
6.476902 75.429047 354.57031
7.0894699 75.324188 355.36588
7.6755142 75.31694 355.48129
9.4003487 75.440765 354.81268
9.958993 74.930229 356.49789
5.9079065 74.880783 354.42114
6.4957948 74.873779 354.53461
7.0958695 74.818245 354.9906
7.6943274 74.762589 355.44662
9.4046011 74.336945 356.68256
9.9874811 74.328598 356.80295
5.3386064 74.332428 354.27209
5.9542599 74.229881 355.06668
6.5409279 74.222855 355.18015
9.4316111 73.948975 356.12854
10.006227 73.775452 356.76837
5.3663435 73.877426 354.01468
6.5729566 73.621284 355.48514
8.8588505 73.238716 356.49396
9.4421272 73.2304 356.61438
10.025022 73.222069 356.73477
10.607433 73.213486 356.85721
5.3766208 73.221771 354.20062
5.9922509 73.121132 354.99539
6.5919199 73.067314 355.44949
10.034008 72.714958 356.36139
4.8071551 72.673225 354.05249
5.3934083 72.503273 354.68738
5.9791145 72.414566 355.06152
6.5656013 72.407249 355.1759
8.9116888 72.457596 355.38467
9.4590044 72.215179 355.86758
10.042969 72.206688 355.98898
4.8113275 72.163544 353.67505
5.9658389 71.708397 355.12766
6.5521283 71.70089 355.24203
8.8935337 71.668999 355.71255
9.47791 71.660614 355.83292
4.8304524 71.607391 353.63928
5.448266 71.509804 354.4342
4.8496542 71.051178 353.60245
5.4350843 70.803047 354.50027
6.0038137 70.599754 355.05634
7.2416296 70.887283 355.08548
7.7753797 70.706779 355.11136
8.9764671 70.952682 354.75891
9.4841366 70.684578 354.74094
10.079768 70.631348 355.20517
11.239822 70.658218 355.10901
11.832376 70.604462 355.5762
4.8388 70.583534 352.88211
6.5824552 70.125221 354.45523
7.1694651 70.11731 354.57166
7.7561727 70.109169 354.69003
9.5137215 70.084076 355.0491
10.664433 70.154778 354.60898
11.258677 70.101601 355.07523
11.867605 69.96064 356.22333
4.858068 70.026154 352.84525
5.4628077 69.97493 353.30142
7.1885443 69.561478 354.5369
8.958251 69.493324 355.23389
10.6928 69.554039 354.91708
11.275012 69.342445 355.90616
11.859919 69.210609 356.63242
4.8622131 69.511963 352.46552
5.4491458 69.266495 353.36841
6.0521898 69.215721 353.82465
6.6206121 69.013687 354.38483
7.2076378 69.005684 354.50119
8.9662523 68.980743 354.85822
10.711746 68.99733 354.88324
11.26238 68.514297 356.57425
5.4723349 68.946449 352.54294
6.0242915 68.550606 353.54984
6.626266 68.500275 354.00708
7.2267475 68.449776 354.46637
8.3995218 68.433182 354.70306
8.9852877 68.424622 354.82343
9.570673 68.415878 354.94476
10.749607 68.355667 355.53247
11.290203 67.918114 356.87964
3.7510035 67.856903 354.42438
5.4916382 68.3881 352.50705
6.6589379 67.901863 354.31326
9.5685396 67.943542 354.22595
10.1747 67.850677 355.03333
10.733834 67.64872 355.60059
11.291138 67.446915 356.16785
3.7540803 67.343361 354.0477
4.3579354 67.294746 354.50009
6.0767784 67.395248 353.82013
6.6780777 67.345886 354.2775
7.8760109 67.246796 355.19525
9.5876102 67.386215 354.19113
10.193796 67.29435 354.99854
10.727478 66.901276 356.00882
11.310092 66.891846 356.13412
3.7733991 66.788139 354.01099
4.3927879 66.699348 354.80338
7.8274622 66.391388 355.36438
10.212848 66.737869 354.96481
3.7763605 66.119766 354.15628
4.3949227 65.956009 355.20676
6.1238194 66.01162 354.87366
6.6761384 65.853745 355.09198
7.2615967 65.845215 355.21033
7.8854704 65.883202 355.71353
10.790799 65.981308 355.49835
11.38295 65.931816 355.96481
3.7795243 65.75666 353.2554
4.3501625 65.331627 354.59485
4.9674339 65.245247 355.38644
6.6953502 65.298889 355.0563
7.2806716 65.290215 355.17462
7.8656268 65.281601 355.29395
8.4502335 65.272705 355.41428
9.0343838 65.263718 355.53568
10.765166 65.314629 355.22534
11.366864 65.226334 356.03201
3.7989726 65.199982 353.21957
4.9562745 64.768806 354.67252
6.7145481 64.743851 355.02158
7.2998838 64.735176 355.13995
7.8847947 64.72644 355.25925
10.784233 64.758301 355.19061
11.385881 64.670906 355.99832
3.8181574 64.530075 353.57489
4.3887515 64.222076 354.52243
4.9755473 64.213959 354.63687
5.5619926 64.205704 354.75217
6.7065229 64.265465 354.3045
7.3060427 64.21846 354.76404
7.9039922 64.171288 355.2236
9.6348076 64.220703 354.90811
10.2544 64.361183 354.92947
10.80324 64.201828 355.15683
6.1389556 63.717762 354.15137
6.7257867 63.709251 354.26971
7.3252435 63.662674 354.72827
9.6539822 63.664257 354.87338
10.238411 63.654823 354.99765
3.8410611 63.567142 352.76697
7.331471 63.144127 354.35226
7.9175277 63.135258 354.47256
8.5031099 63.126194 354.59286
9.6945858 63.033009 355.52014
10.282955 62.726681 357.10266
3.8270681 62.860981 352.83307
4.4325876 62.815926 353.2886
5.0029693 62.622238 353.8472
6.1490211 62.679024 353.3963
6.7369361 62.670326 353.51462
7.3507805 62.587776 354.31647
7.9367766 62.578804 354.4368
9.1054811 62.044571 356.92038
9.7077837 61.962769 357.71744
10.287255 61.953053 357.8428
3.8129973 62.15519 352.89923
4.4344597 62.0742 353.69604
5.0223708 62.065876 353.81143
6.7562513 62.112839 353.47882
7.3437853 62.104031 353.59705
7.9434695 62.058544 354.05966
8.5432186 61.500843 356.76346
9.1162701 61.345787 357.40234
9.691761 61.263313 357.784
10.281081 61.218094 358.24478
4.4378715 61.553726 353.31796
5.0418019 61.509464 353.77463
5.6292872 61.500977 353.89096
7.3498273 61.582329 353.2189
8.5163841 60.583546 357.60382
9.0962362 60.573925 357.7262
9.675601 60.564167 357.85056
10.275158 60.484848 358.64685
3.2956595 61.269634 352.34702
3.8520515 61.040386 352.8255
4.457427 60.996819 353.28119
5.0612645 60.952911 353.73877
5.6487355 60.944324 353.8551
8.558568 60.213039 357.13177
9.7162066 59.943951 358.48697
10.294139 59.933895 358.61237
3.8716097 60.482883 352.78867
4.4769068 60.439724 353.24435
6.2409539 60.413712 353.59427
7.4282408 60.360901 354.1752
8.5777082 59.660362 357.09625
9.1570873 59.402786 358.32813
9.7353401 59.39291 358.45251
3.8911989 59.925282 352.75183
4.4804978 59.916855 352.86609
5.6580029 59.899506 353.09869
6.2604656 59.856457 353.55838
6.8614502 59.813087 354.01913
7.4257193 59.622379 354.58292
7.9935489 58.937416 357.37686
8.5737057 58.927807 357.49927
9.1761913 58.851753 358.29364
9.7544441 58.841717 358.41904
3.9112711 59.511147 352.18835
4.5000877 59.359039 352.82919
5.0889935 59.350376 352.94547
5.6774712 59.341709 353.06177
6.2800245 59.298988 353.52252
8.0227175 58.597275 356.5672
8.5928593 58.375664 357.46475
9.7735033 58.290581 358.38455
3.8801537 58.909866 351.64774
4.5035481 58.83453 352.44989
5.1085682 58.792496 352.9086
5.6971092 58.783653 353.02591
6.2995524 58.741486 353.48569
7.4250622 57.907154 356.51239
8.6120596 57.823441 357.43021
9.191762 57.813492 357.55457
4.4907598 58.341763 351.72501
5.1126103 58.267345 352.52823
5.7167153 58.225559 352.98904
6.2840271 58.036919 353.55295
6.8496761 57.848267 354.11789
7.4707637 57.290585 357.14993
8.6312904 57.271103 357.39566
9.2109776 57.261154 357.51999
9.7901926 57.251049 357.64536
4.4940305 57.814732 351.34259
5.1323123 57.708588 352.49231
6.2829752 57.300762 353.96173
8.070549 56.728455 357.23773
9.2301941 56.70863 357.48544
9.7686396 56.484146 357.96951
4.5139384 57.254383 351.30649
5.1363459 57.181705 352.1109
5.7559762 57.1091 352.9162
6.9285517 56.195522 356.95847
7.4651957 55.835499 357.95157
9.2379217 56.186737 357.11423
9.7563324 55.85556 357.77969
5.1561575 56.622253 352.07486
5.7405286 56.404331 352.98346
6.2929335 56.248623 353.2059
6.9479198 55.643059 356.92288
9.2748518 56.556805 352.92175
5.1444898 56.124592 351.34872
5.7249417 55.699947 353.05072
6.3653646 54.926395 357.20291
6.9244046 54.743225 357.75922
7.5036926 54.733284 357.88162
5.1642604 55.5639 351.31165
5.7549381 55.554909 351.42889
6.3497071 54.230515 357.26868
9.2233601 54.237717 357.21399
5.1683941 54.749222 352.10254
5.805006 54.934349 352.08319
6.3835545 53.65049 357.5679
8.6506176 53.72332 356.71729
9.24261 53.684689 357.17935
4.6130333 54.451488 351.1203
5.1841712 54.267403 351.68646
6.3885293 53.126785 357.19766
8.6699162 53.169785 356.68262
9.2735949 53.103878 357.48062
3.4846053 53.047096 354.68295
6.4080024 52.574806 357.16211
7.0019674 52.537609 357.61926
8.7138395 52.561562 357.32065
3.5043342 52.492298 354.64624
6.3985071 52.07618 356.4549
7.0213151 51.986103 357.58276
3.5414276 51.91058 354.94836
6.4180465 51.523018 356.41925
7.0270619 51.460545 357.21341
2.9226518 51.444019 353.77988
6.4230208 50.995529 356.04675
7.0465665 50.908195 357.1778
6.4709969 50.804409 354.79172
7.0382614 50.406193 356.47037
7.5729675 50.060658 357.46835
9.8948174 51.373508 350.85892
3.5276723 50.198063 354.03806
4.7534475 50.252632 354.73495
5.8497286 49.947353 355.17831
6.4837174 50.055367 355.53616
7.0438843 49.877449 356.09885
5.2859163 49.402214 355.02228
5.8846292 49.367981 355.48053
6.4818487 49.333534 355.93982
7.0635037 49.323307 356.06314
7.6446252 49.313057 356.18646
3.571393 49.233704 353.40607
5.3056622 48.847118 354.98557
5.9346452 48.765785 356.11884
7.6642618 48.758724 356.15179
3.538239 48.621254 352.86884
4.0889888 48.40551 353.3522
5.3253012 48.291927 354.94885
5.9544315 48.212029 356.08319
7.6568489 48.250992 355.44
5.36099 47.713734 355.25116
5.9590421 47.680828 355.71051
4.2269306 46.786972 356.85919
5.3171878 47.248287 353.85709
6.4944758 47.018959 355.22339
7.0910316 46.986485 355.68481
3.6311343 46.28775 356.03406
4.246769 46.235073 356.82266
5.3210192 46.71312 353.48019
7.0736823 46.290184 355.75055
3.6684465 45.714005 356.33163
4.230619 45.543102 356.88666
4.8074503 45.351841 357.77484
7.107697 45.714466 356.05301
3.6533806 45.202061 355.62375
4.2143312 44.851349 356.95169
4.8269925 44.80114 357.73837
3.6907554 44.628403 355.92325
4.8304009 44.269741 357.36865
3.6888657 43.955887 356.10144
4.2539306 43.747658 356.87857
4.8501921 43.718273 357.33319
5.4449444 43.688717 357.78873
3.1121786 43.747551 354.28024
3.6957474 43.55938 355.17648
4.2737689 43.195648 356.84204
4.8535166 43.185097 356.96338
5.4646411 43.137718 357.75223
2.511498 43.062099 354.22873
3.1143167 43.033569 354.68329
3.7157345 43.004803 355.1398
4.2936687 42.643547 356.80548
4.8733706 42.632984 356.92682
5.4686232 42.604469 357.38348
2.5504587 42.488686 354.52829
3.1527121 42.460476 354.98386
3.7532871 42.432354 355.43948
4.2964506 42.108807 356.43463
4.8932104 42.080791 356.89023
5.4725318 42.070148 357.01257
2.5518162 41.950832 354.1532
4.2820249 41.590092 355.72632
4.8800364 41.562382 356.1839
5.4923873 41.517784 356.97702
7.809927 43.575932 345.95309
4.8999271 41.00898 356.14728
5.5122447 40.965328 356.94147
7.1942739 42.871193 345.90164
2.0099456 40.678581 354.73877
2.5934279 40.668125 354.85608
4.3768368 40.661358 355.62961
4.9199104 40.455425 356.11166
1.9939368 39.985798 354.80276
2.5772066 39.975288 354.92105
4.2900624 39.974632 354.60495
4.9398627 39.901825 356.07504
2.5973611 39.420662 354.88333
3.1802809 39.41008 355.00259
4.9598775 39.348038 356.03842
2.5985765 38.880516 354.50815
3.2004054 38.855354 354.96487
3.7828383 38.844704 355.08514
4.4191251 38.95723 355.44226
4.9798765 38.794235 356.00177
2.5997665 38.339291 354.13287
3.2021575 38.314625 354.58963
3.8207557 38.275852 355.38498
4.419394 38.251156 355.84283
5.596014 38.215572 356.42499
2.620049 37.783348 354.09512
3.2223628 37.759129 354.55292
3.8220458 37.625599 355.52832
4.402081 37.560181 355.90787
4.9824119 37.549217 356.03119
5.5604796 37.483833 356.41275
2.6403635 37.227276 354.05829
3.2425826 37.203613 354.51514
4.3847661 36.869526 355.97293
4.9647617 36.858547 356.09625
5.5606494 36.834915 356.55518
2.6223564 36.696308 353.34232
3.2628953 36.647919 354.47839
3.8635731 36.624619 354.93732
5.5806017 36.281563 356.51959
3.2461739 36.11623 353.76334
3.8462176 35.932846 355.00229
4.4268427 35.868591 355.38293
5.0048356 35.750965 356.02292
5.6006289 35.728264 356.483
3.2664757 35.559395 353.72549
4.4276409 35.219215 355.52634
5.0249119 35.197067 355.98627
3.2495995 35.024418 353.00824
3.8887033 34.980515 354.14963
3.2699831 34.466404 352.97034
3.8899646 34.355915 354.16324
4.4505281 34.120209 355.11615
5.0314407 34.1091 355.24048
7.3608456 34.221184 354.9682
3.2904296 33.908131 352.93344
4.4356132 33.5844 354.40384
5.0346193 33.563545 354.86588
3.2921073 33.35944 352.55371
3.9138021 33.329399 353.35855
3.2938986 32.809517 352.17493
3.916153 32.780575 352.9798
4.4968777 32.615818 353.88754
5.1352434 32.731647 354.24881
5.6783342 32.584934 354.47696
6.8132381 32.499031 354.61197
3.3332803 32.24155 352.47882
3.9184785 32.230553 352.60107
5.044076 31.920198 353.73889
5.6431847 31.900803 354.20404
6.8059621 31.878235 354.45853
3.9389901 31.671375 352.56406
3.927443 31.429634 350.25296
4.5158167 30.910826 353.24368
5.0846734 30.804792 353.66415
5.6836867 30.786423 354.13034
6.2811298 30.767944 354.59756
3.8834844 30.690077 350.12524
4.5221748 30.258232 353.50201
5.1050262 30.246906 353.62726
4.5853124 29.982435 352.57532
3.9846621 29.445873 351.72708
4.5666881 29.288227 352.64221
5.1113029 29.142185 352.87137
6.9402905 29.378048 353.0473
3.9637909 28.605715 352.58395
5.0823455 29.189648 348.25922
5.7201834 29.463509 347.46866
6.8805761 28.548967 353.21808
3.9843173 28.046499 352.54599
4.5684662 28.0352 352.6712
6.3662491 28.279636 352.15887
4.0065722 27.582115 351.98257
4.5889478 27.475824 352.63425
5.1726861 27.464451 352.76041
5.7559066 27.453121 352.88766
3.4031155 26.946384 351.66153
4.0255399 26.927807 352.47101
4.6094904 26.916506 352.59622
5.1931076 26.905081 352.72348
5.7929459 26.890207 353.19183
3.4500818 26.475155 351.55316
4.0461597 26.368338 352.43399
4.630095 26.357031 352.55923
5.2136202 26.345602 352.68646
5.7922482 26.241423 353.33829
3.4444399 25.825264 351.58542
4.0667787 25.808823 352.39603
4.6506848 25.797363 352.52228
5.23418 25.786032 352.64944
3.4651253 25.264559 351.5473
4.0874758 25.249155 352.35904
4.6712756 25.237688 352.48526
5.2547088 25.226364 352.61249
3.4668803 24.705349 351.16602
5.2099857 24.490482 352.48499
5.8177872 24.522318 352.80768
2.8818679 24.156324 350.6604
3.4685647 24.144941 350.78464
5.2153664 23.841745 352.74557
3.5085337 23.582476 351.09085
4.1127696 23.570543 351.56033
4.6975908 23.559196 351.68655
5.2819114 23.547728 351.81476
3.4716694 23.020721 350.01663
4.115005 23.009508 351.17789
4.7182488 22.998127 351.64948
5.2619553 22.854292 351.88171
3.49261 22.457624 349.97845
2.3803585 21.661177 351.96542
2.9645991 21.649637 352.08966
4.7057185 21.872381 350.53995
5.2897191 21.688581 351.84125
1.8145074 21.240595 351.01529
2.380996 21.099588 351.58499
3.0050335 21.091652 352.39307
4.6994324 21.051296 351.74634
5.2831273 21.039707 351.87457
1.7960242 20.548508 351.08026
2.4222708 20.541559 351.88943
1.8379405 19.990393 351.38474
2.4032011 19.851196 351.95557
3.0067165 19.842579 352.42126
3.6087387 19.833902 352.88898
1.7961004 19.419752 350.31509
2.3840213 19.161287 352.02072
2.9675925 19.149483 352.1459
3.5700543 19.141415 352.61365
1.8382316 18.861486 350.62051
3.6100941 18.586412 352.91727
1.8395553 18.214546 350.767
2.4254682 18.122274 351.41846
3.0092905 18.030066 352.06985
3.5923445 18.018324 352.19708
2.4058397 17.471706 351.22141
3.6131632 17.458517 352.15909
1.8806555 17.170479 350.16043
2.4268167 16.910706 351.18335
3.0111964 16.898914 351.30853
3.6340284 16.898607 352.12109
1.8607154 16.51762 349.9613
2.4271879 16.343441 350.80054
3.0521526 16.344118 351.61414
2.4482594 15.78184 350.76245
3.0531366 15.776753 351.23334
4.8036146 15.741427 351.61896
2.469372 14.763858 349.54559
3.6543016 14.707569 350.29572
4.2646794 14.706271 350.88498
3.6608799 14.064434 350.55859
4.2641792 14.061089 351.03162
3.6818483 13.501936 350.52042
4.2635546 13.416648 351.17929
3.6747031 12.980102 349.56433
3.0735803 12.500335 348.0903
3.6846056 12.356878 349.75223
3.1024089 12.009319 347.63144
3.6945038 11.734558 349.94019
3.1019821 11.325161 348.04929
3.6873829 11.207193 348.98273
3.7084694 10.642199 348.9444
3.1460268 10.296261 347.16507
3.1244528 9.566802 347.50339
3.1446202 8.9323292 348.00204
3.1658957 8.3660097 347.96362
3.1871715 7.7996292 347.92529
3.2084475 7.2331829 347.88684
3.1870694 6.5406804 347.9549
-2.4052734 5.187356 357.28867
-1.7831404 5.2069507 358.06836
3.1652789 5.8483858 348.02292
-2.9571624 4.6503077 357.12894
-2.3839672 4.6377025 357.25024
-1.1904123 4.6459007 358.15329
0.52190185 4.6090202 358.52936
1.1542693 4.7346759 358.8873
1.7041384 4.6180744 359.44162
-0.045027964 3.9691887 358.79163
2.2241387 3.8859155 359.44751
-2.9071209 2.8988502 357.44162
-1.7169355 2.3431895 357.97717
-1.1863046 2.2108245 358.20032
-0.005062826 2.3060579 358.35327
0.56482506 2.2938232 358.48065
1.1358273 2.2323129 359.06091
1.7461734 2.307122 359.3942
-1.1652019 1.6622982 358.16193
23.778801 124.37045 354.39859
23.475153 123.64642 354.8764
23.841286 122.90321 355.22037
22.547592 122.74253 354.67343
23.256413 122.66359 354.58627
22.550831 122.20754 354.64044
23.664543 121.33048 354.94604
21.791574 120.86836 356.18338
22.272617 120.87566 355.87036
19.574615 122.63761 352.28537
24.301069 120.57324 354.79321
20.977161 120.54675 356.11322
21.79488 120.33537 356.15036
20.092037 121.76173 352.79327
21.316898 119.79507 356.43066
21.84868 119.6394 356.19949
22.555557 119.56464 356.10889
23.324907 119.82848 354.50598
23.85866 119.6705 354.27982
20.104229 119.66283 355.96289
22.609356 118.86965 356.15805
20.386688 118.8848 356.23431
21.096399 118.81015 356.14221
20.365688 118.18229 356.96115
20.896004 118.02679 356.72714
21.376909 118.03416 356.41296
21.858179 118.04148 356.0997
22.871984 117.8909 355.55878
23.686447 118.2306 353.97708
19.179035 117.71332 357.33942
19.888258 117.64187 357.24368
20.923201 117.16656 357.53156
21.458279 117.50555 355.70456
21.940624 117.51185 355.39157
22.649649 117.43797 355.3031
23.390022 117.52937 354.45886
19.410662 117.10143 357.52646
18.934288 116.55988 357.81073
19.752029 116.35591 357.84119
20.400162 116.25713 357.69897
20.879387 116.26457 357.38361
21.414267 116.59962 355.55515
21.846792 116.76796 355.15939
22.330389 116.77412 354.84799
23.396597 116.46136 354.39285
13.150435 118.32543 355.15347
18.707764 116.10587 357.55649
20.452923 115.56525 357.74649
23.175007 116.00549 354.13632
13.679535 117.46011 355.65143
14.398652 117.38905 355.54855
18.710581 115.57294 357.52258
19.419796 115.50256 357.42554
23.404762 115.39232 354.32806
12.961608 116.99022 355.72028
13.681787 116.92023 355.61633
14.401602 116.85014 355.51413
18.823217 114.90639 357.6163
19.473236 114.80862 357.47366
20.004017 114.65513 357.23935
21.480003 115.32085 353.93253
21.965446 115.32708 353.62076
23.182491 114.93547 354.07071
12.128153 116.65401 355.66025
12.963895 116.44934 355.68509
13.684069 116.38033 355.58118
18.256132 114.66001 357.01233
19.526659 114.1157 357.522
20.234726 114.04626 357.42612
22.959469 114.47868 353.81274
12.244861 115.9784 355.75497
12.966116 115.90947 355.64993
13.686366 115.84048 355.54599
18.259014 114.12607 356.97839
19.985413 113.43097 357.9277
20.465555 113.43839 357.61282
22.963568 113.94266 353.78021
12.246398 115.43757 355.71902
13.020759 115.20654 355.69775
13.740977 115.13756 355.59384
14.512396 114.90645 355.57413
19.001972 113.20326 357.68948
19.760607 112.97491 357.67444
20.468382 112.90646 357.57898
21.54081 113.54976 353.9176
22.026918 113.55495 353.60651
23.485193 113.57025 352.67746
11.527053 114.96451 355.79062
12.248731 114.89669 355.68381
13.794868 114.43567 355.64111
14.514658 114.36756 355.53906
19.055332 112.51034 357.73779
19.763433 112.44298 357.64059
20.471895 112.37448 357.54581
21.545015 113.01374 353.88501
22.030359 113.01897 353.57327
23.489311 113.03324 352.64487
11.528642 114.42268 355.75455
12.251047 114.35581 355.64853
18.247231 112.36473 357.63702
19.058226 111.97739 357.70383
19.766251 111.91003 357.60672
20.474737 111.84255 357.51199
21.548426 112.47776 353.85181
23.233791 112.41692 353.14706
11.530959 113.88182 355.71927
12.252632 113.81499 355.61258
13.026941 113.58495 355.59143
13.686236 113.48965 355.44092
18.300669 111.67181 357.68527
19.061071 111.44446 357.66992
19.769873 111.37807 357.57352
20.478313 111.31055 357.47885
21.323124 112.016 353.59296
22.067652 112.10164 352.74408
23.011078 111.95613 352.88849
11.292727 113.41722 355.45782
13.081457 112.88302 355.6395
13.565028 112.89218 355.3111
18.583941 110.90497 357.95361
19.063868 110.91251 357.63608
19.544333 110.91904 357.3194
21.097775 111.55424 353.33414
21.584597 111.55947 353.02234
22.071772 111.56461 352.71155
23.242155 111.34489 353.08188
11.05514 112.95157 355.19696
12.257358 112.73325 355.54199
13.557734 112.19183 356.05261
16.070457 111.12149 357.75354
17.065016 110.82249 357.95407
19.548002 110.38607 357.28607
20.028772 110.39251 356.97043
22.303875 110.95234 352.90521
23.019464 110.8821 352.82315
11.966908 112.16782 355.25787
13.086026 111.80228 355.56906
16.123476 110.42663 357.8006
16.946712 110.23087 357.82736
17.598471 110.13628 357.6817
18.079569 110.14391 357.36298
18.560423 110.15153 357.04449
19.092394 109.998 356.81033
20.032413 109.85955 356.93716
21.362289 110.55878 352.72903
22.307365 110.41535 352.87186
23.250555 110.27185 353.0166
12.611987 111.41181 355.08347
16.126501 109.8917 357.76642
17.651741 109.44335 357.73013
18.132746 109.45098 357.41147
18.614157 109.45754 357.09375
19.095337 109.46408 356.77631
19.577604 109.47054 356.46057
20.648455 110.08886 352.78085
21.365831 110.02081 352.69556
22.311666 109.87835 352.83911
16.12879 109.35681 357.73154
16.609884 109.3646 357.40994
18.135658 108.91705 357.37744
18.617085 108.92361 357.05972
19.810144 108.86461 356.64853
21.112467 109.40429 353.20123
21.828411 109.33624 353.11612
22.881201 109.06394 353.39175
12.615939 110.32912 355.01218
16.131065 108.82192 357.69669
16.894527 108.59875 357.67844
17.657606 108.37649 357.66208
18.138632 108.38313 357.34338
19.354589 108.47465 356.17126
22.617069 108.26218 353.93207
23.103086 108.26719 353.62384
13.095438 109.64077 355.42795
15.668348 108.42989 357.22089
16.947765 107.90581 357.72684
17.659847 107.84259 357.62729
18.371552 107.77829 357.52948
19.127895 108.01072 355.91516
21.349058 108.2571 353.36063
12.621433 109.24634 354.94214
15.669926 107.89403 357.18527
17.682983 107.45613 356.83353
18.165199 107.46277 356.51498
20.636887 107.78711 353.41364
21.920626 107.44781 353.91156
22.883314 107.2664 353.33228
12.623067 108.70448 354.90607
15.439684 107.4281 356.92978
16.53318 107.05889 357.23553
17.203472 106.91358 357.11807
17.68593 106.92122 356.79935
18.168146 106.92783 356.48087
18.925207 106.94637 356.40448
19.59449 106.79978 356.29227
20.410416 107.32037 353.15427
22.142614 106.65212 354.14218
22.887548 106.73038 353.29971
12.625481 108.16264 354.8707
15.442044 106.89123 356.89478
16.974527 106.44862 356.86279
17.688953 106.38628 356.76517
18.631952 106.25297 356.88919
19.114525 106.25942 356.57318
19.597507 106.26585 356.25818
20.874006 106.64095 353.57257
22.664232 106.26459 353.04141
12.114253 107.87176 354.32581
13.114414 107.62888 354.50809
15.693679 106.43218 356.31537
17.209505 105.84372 357.04974
17.922756 105.7814 356.95181
18.685923 105.56092 356.93979
19.167606 105.56742 356.6232
19.60125 105.73087 356.22464
21.239038 105.87931 353.92368
22.439413 105.79685 352.78171
12.005523 107.33768 354.19125
13.116843 107.087 354.47266
15.830688 105.73997 356.4371
16.97983 105.37782 356.79367
17.694929 105.31546 356.69675
21.66877 105.04204 354.35312
11.914553 106.74884 354.08539
16.750101 104.90992 356.53757
17.697264 104.78056 356.6618
18.180861 104.78609 356.34476
20.655598 105.09823 353.24661
12.157187 106.13567 354.27682
12.643767 106.14385 353.94824
13.370049 106.08163 353.84848
16.985901 104.30597 356.72513
17.700338 104.24467 356.6275
18.233812 104.09304 356.39487
18.7675 103.94137 356.16339
19.201309 104.10497 355.76321
20.539309 104.49957 353.12033
21.197733 104.40515 352.98932
21.685736 104.40928 352.67911
23.660149 104.86401 349.83078
12.646186 105.601 353.91272
13.133866 105.60909 353.58582
16.988976 103.77004 356.69083
17.703392 103.70971 356.59326
21.967863 103.64481 352.9588
23.992096 103.93475 350.20602
11.681735 105.18857 353.75174
12.649386 105.0571 353.87784
16.759342 103.30114 356.43457
17.706451 103.1738 356.55893
18.190058 103.18031 356.24194
19.71773 103.61456 353.0062
20.205753 103.61987 352.69308
20.694962 103.62405 352.38156
23.734119 103.32449 350.70822
24.224989 103.32728 350.4035
25.17123 103.19511 350.56006
12.122547 104.30094 354.18558
16.262148 102.61993 357.48248
16.744446 102.62562 357.16245
17.227165 102.63228 356.84341
17.730623 102.77743 355.76358
18.214706 102.78297 355.44598
20.550972 102.88565 353.02017
21.259371 102.63293 352.97647
23.018406 102.85002 350.75156
23.460369 103.01326 350.35727
24.457817 102.72078 350.6011
25.176167 102.65604 350.52792
12.270824 103.64384 354.30634
16.031759 102.14996 357.22693
19.261265 102.67023 352.48468
20.213949 102.54089 352.62625
21.262959 102.09497 352.94293
21.751465 102.09906 352.63354
23.022669 102.31102 350.71872
23.743336 102.24641 350.64322
24.462107 102.18276 350.5683
15.318764 101.67221 357.29312
16.267712 101.54915 357.41309
16.750006 101.55483 357.09299
17.232695 101.56146 356.77402
17.716549 101.56801 356.45663
19.264967 102.13026 352.45093
20.217602 102.00193 352.59256
22.76631 101.70165 351.22214
23.256443 101.70455 350.91541
24.301851 101.25787 351.24573
24.910728 101.32227 351.03577
15.321241 101.13633 357.25806
16.037355 101.07818 357.15747
16.753166 101.01993 357.05865
17.285749 100.86945 356.82413
18.779604 101.58596 352.73141
19.500719 101.52402 352.64417
20.271828 101.30465 352.64691
21.328808 101.28741 351.34756
22.540722 101.22807 350.95999
23.261364 101.16552 350.88324
24.306782 100.71983 351.21371
25.023914 100.65717 351.13901
15.089716 100.66441 357.00214
15.807022 100.60624 356.90182
18.783321 101.04598 352.69757
19.554134 100.82678 352.69781
21.563091 100.68311 351.54245
22.283758 100.62073 351.46277
22.774944 100.62363 351.15634
24.538048 100.11749 351.40881
15.092855 100.12749 356.96768
15.810171 100.0703 356.86743
16.293198 100.07605 356.54657
18.231743 100.09931 355.2753
18.7176 100.10473 354.96017
19.276217 100.50939 352.34946
21.307745 100.0757 352.04636
22.257185 99.950096 352.19284
22.828712 99.926239 351.21255
23.776312 99.800385 351.36383
24.543005 99.580429 351.37674
14.86062 99.653572 356.71097
15.579005 99.596367 356.61099
16.346777 99.382965 356.5975
16.830782 99.388611 356.27847
17.36474 99.238022 356.04538
17.750187 99.556885 355.55771
19.281874 99.127525 355.54312
20.822174 99.532639 352.32278
21.542404 99.472404 352.24081
23.830093 99.103882 351.41998
24.320232 99.106049 351.11609
14.863778 99.116074 356.67645
15.581502 99.059631 356.57578
16.883503 98.696053 356.32892
17.599766 98.639145 356.2326
19.285696 98.591782 355.5094
19.874128 99.116837 352.14624
20.826542 98.993721 352.28976
21.546177 98.933952 352.20709
22.266041 98.87381 352.12692
23.343969 98.563591 351.69147
23.834473 98.56588 351.38718
12.528234 99.777588 354.28348
14.880786 98.710251 355.87491
15.834862 98.591057 355.99841
17.834852 98.041138 356.41977
21.061028 98.391884 352.48309
21.830019 98.175003 352.48962
22.319479 98.177971 352.18213
13.835863 98.736336 354.77197
15.715195 97.990578 355.87259
16.656713 97.684685 356.03821
18.344845 97.638618 355.31006
20.569971 97.438332 354.36832
21.364874 97.350151 353.61246
22.601469 97.420898 352.46393
10.741267 99.455795 352.44324
13.981728 98.085609 354.89127
14.951732 97.605827 355.12366
16.659901 97.147598 356.00375
17.377304 97.091782 355.90768
17.862795 97.096962 355.59149
18.347982 97.101807 355.27563
19.32102 97.11087 354.64813
20.086737 96.89801 354.64539
20.852476 96.684731 354.64542
21.826092 96.691559 354.02728
22.377195 96.944511 352.20456
10.743212 98.909393 352.40665
12.304438 98.345055 353.16885
17.380489 96.555069 355.8732
17.866011 96.560143 355.55704
18.838221 96.569511 354.92758
19.374002 96.41787 354.70111
20.369757 96.145241 354.922
20.856281 96.148979 354.61176
21.343174 96.152443 354.30261
21.830526 96.155655 353.99442
10.798465 98.20369 352.45938
12.066893 97.863113 352.90564
16.432451 96.133492 355.71216
17.150969 96.078453 355.61642
19.426954 95.725151 354.75415
20.373608 95.609482 354.88837
20.860102 95.613098 354.57816
21.34704 95.616486 354.26898
10.853703 97.498169 352.51221
12.069504 97.317978 352.86987
16.435671 95.595695 355.67755
17.154184 95.541145 355.58191
17.894327 95.61055 354.72659
18.381409 95.615128 354.41159
20.147169 95.132904 354.63126
20.863955 95.077164 354.54443
21.351566 95.080505 354.23602
14.124668 95.686638 355.67676
12.320829 96.841087 352.27829
15.869802 95.488304 355.02316
16.9247 95.062965 355.32504
17.897516 95.072525 354.69208
18.666595 94.862015 354.68887
19.433874 94.651596 354.68604
20.151022 94.596542 354.59753
20.867807 94.541206 354.5108
13.456016 95.044609 355.82837
14.414575 94.932007 355.95053
14.900118 94.937912 355.6286
12.668456 95.918404 352.64938
15.873103 94.94912 354.98837
16.693632 94.584053 355.06674
18.951332 94.110748 354.96521
19.437805 94.114731 354.65225
19.92462 94.118454 354.3403
20.900253 94.125198 353.72009
8.4147482 95.562477 355.63107
9.1437063 95.5103 355.52203
9.8723021 95.457794 355.41476
12.684402 94.712868 355.80841
13.458618 94.504555 355.79291
14.41719 94.392868 355.91507
14.90342 94.398712 355.59381
16.463366 94.103882 354.80911
17.904753 93.996284 354.62354
19.441587 93.577774 354.61856
19.928476 93.581406 354.30658
20.416437 93.584824 353.99631
8.4167604 95.018158 355.59448
9.2610817 94.842514 355.61798
9.926137 94.758224 355.46512
12.975819 93.958252 356.082
13.461222 93.964493 355.75739
14.419849 93.853706 355.87955
14.906034 93.859459 355.55835
15.896104 93.992653 354.15012
15.440896 94.233162 352.92719
18.420092 93.384819 354.31821
18.982649 93.15583 354.13718
19.958948 93.162971 353.51346
20.448069 93.166176 353.2034
20.888634 93.324661 352.80603
21.377909 93.327599 352.49725
21.917017 93.174622 352.27878
8.1746826 94.533249 355.33286
9.4944115 94.051498 355.84732
9.9805517 94.058914 355.5162
10.466478 94.066238 355.18536
12.739805 93.476257 355.82297
13.463931 93.424332 355.72183
14.237182 93.2174 355.70877
14.974082 93.286324 354.84235
16.089466 93.309677 354.32358
15.443373 93.690613 352.89163
17.465693 93.154709 353.33975
18.985809 92.617798 354.10263
19.474089 92.621437 353.79065
20.220869 92.685318 352.94397
20.941437 92.630867 352.86063
21.431328 92.633652 352.55261
21.921553 92.6362 352.2457
22.412161 92.63858 351.93985
7.9339156 93.921326 355.85449
8.6634922 93.870682 355.74493
10.469188 93.522911 355.14954
12.742472 92.935616 355.78735
13.46652 92.884186 355.68625
15.028161 92.590889 354.89554
16.940298 92.372574 355.15109
19.478027 92.083176 353.75677
