ply
format ascii 1.0
comment PCL generated
element vertex 1608
property float x
property float y
property float z
element camera 0
property float view_px
property float view_py
property float view_pz
property float x_axisx
property float x_axisy
property float x_axisz
property float y_axisx
property float y_axisy
property float y_axisz
property float z_axisx
property float z_axisy
property float z_axisz
property float focal
property float scalex
property float scaley
property float centerx
property float centery
property int viewportx
property int viewporty
property float k1
property float k2
end_header
-5.2724152 47.516239 340.51962
-0.73722202 47.57111 354.12476
-0.83924776 47.566502 353.36359
-1.1746964 47.564976 352.86108
-1.8406044 47.561886 351.85257
-2.7401645 47.561832 351.09967
-5.7957397 47.846115 349.9498
-5.8813324 47.841068 349.18237
-7.3425493 47.84293 348.16031
-6.3543124 47.416443 343.0766
-5.6716695 47.238926 341.61005
-0.99337792 47.009609 354.3746
-0.86040992 47.002796 353.35355
-1.861675 46.998081 351.84265
-2.9965799 47.000008 351.34503
-5.4657841 47.137444 349.62805
-5.310904 47.130302 348.60623
-7.1172996 47.271778 347.89188
-6.0976181 46.68721 342.85281
-5.9287601 46.68058 341.84485
-1.0146002 46.44471 354.36453
-0.88158727 46.438995 353.34351
-1.216273 46.43737 352.84036
-2.5432975 46.43082 350.82104
-5.3775067 46.432537 349.56387
-4.9826746 46.424522 348.28708
-6.2480168 45.989525 343.03915
-0.65286249 45.787098 353.97269
-0.79714382 45.739067 353.27969
-0.89720237 45.735909 352.5191
-0.99546027 45.732811 351.75888
-1.6566528 45.729305 350.75082
-2.0919545 45.863647 350.29935
-5.3970642 45.86562 349.55264
-5.0021725 45.859203 348.27588
-4.7218418 45.284241 341.4884
-0.71268547 45.039532 353.21594
-0.81263757 45.036877 352.45544
-0.91153675 45.034275 351.69601
-1.2417363 45.032467 351.19165
-1.5716916 45.03056 350.68756
-5.1757693 45.297638 349.28445
-5.501575 45.295738 348.77463
-4.0400867 44.636208 341.6218
-4.0340886 44.633484 340.78613
-2.1299064 45.026897 356.25134
-0.73384768 44.475834 353.2059
-0.83376962 44.473667 352.44543
-0.9319368 44.471569 351.6853
-1.262823 44.469666 351.1817
-1.5920306 44.467754 350.67694
-5.1953268 44.731026 349.27319
-5.5204 44.729218 348.7627
-4.0671692 43.895107 340.87073
-2.0477238 44.460464 357.00937
-1.5730342 44.322086 355.66309
-0.98896396 43.911736 353.45401
-0.85493207 43.91037 352.43539
-0.95235205 43.908764 351.67459
-1.2831924 43.906864 351.17099
-1.6124002 43.904949 350.66629
-1.9406006 43.903019 350.16107
-5.2149305 44.164406 349.2619
-5.5399728 44.162498 348.75143
-3.6118968 43.338848 340.36844
-1.6195823 43.61993 356.62662
-1.4888476 43.619164 355.59906
-0.7762481 43.348133 353.18573
-0.87540793 43.346966 352.42462
-0.9734844 43.34586 351.66455
-1.3036076 43.343952 351.16031
-1.6327693 43.341946 350.65558
-1.9609548 43.340015 350.15045
-5.2345338 43.597599 349.25061
-5.5595303 43.595688 348.74017
-2.4941804 42.925262 342.43256
-4.0290661 42.779831 341.60016
-3.8655081 42.780373 340.60104
-1.6417174 43.051838 356.61703
-1.0404525 43.054401 355.06738
-0.89661604 42.783463 352.41455
-0.88770014 42.6483 351.60071
-1.0273291 42.602352 350.90952
-4.9281945 43.032684 349.7493
-5.2541833 43.030781 349.23929
-6.3857713 43.024525 348.72949
-2.3292453 42.234169 343.12402
-2.4073024 42.233852 342.37112
-3.8103883 42.223049 341.3421
-4.1191649 42.220779 340.83365
-1.0864208 42.35186 356.02863
-0.91318983 42.398987 354.93457
-4.8396587 42.329872 349.68536
-5.1647625 42.327862 349.17484
-5.5716624 42.325619 347.89783
-2.3470099 41.676437 343.11163
-2.4250369 41.676617 342.35883
-2.7361321 41.674267 341.85233
-3.0462203 41.672005 341.34546
-0.76796246 41.652466 355.70392
-0.40404084 41.657585 354.42035
-1.0356604 41.656551 351.6329
-1.1310676 41.656898 350.87268
-4.4244647 41.629551 350.13071
-4.7510786 41.627457 349.62146
-5.3999124 41.623215 348.60031
-2.2857249 41.117992 343.85321
-2.3655221 41.118614 343.10001
-2.4428015 41.119286 342.3465
-2.7538667 41.116936 341.84003
-3.0638785 41.11467 341.33319
-0.55614722 41.089115 355.43344
-0.42610231 41.092793 354.4108
-1.2795719 40.956978 351.06525
-4.2928138 41.066769 349.09814
-3.5564222 40.94202 347.5199
-3.6399744 40.943142 346.7587
-2.3042667 40.559563 343.84149
-2.1492271 40.56419 342.84091
-2.4605968 40.561855 342.3342
-3.0815976 40.557236 341.32095
-0.57826883 40.523224 355.42383
-0.44750777 40.527996 354.40054
-4.4645262 40.496132 350.10864
-2.9108353 40.250397 347.71194
-2.9952419 40.251823 346.95142
-3.079145 40.253414 346.19272
-2.2419276 39.999371 344.58405
-2.0958283 39.914917 343.63138
-2.061358 39.873669 342.77908
-2.9924772 39.866577 341.25894
-0.49565843 39.955448 356.17813
-0.59973431 39.957233 355.41351
-0.7027725 39.958981 354.64993
-1.4272566 39.964138 351.09628
-3.3549116 39.941704 350.60193
-3.6818764 39.939491 350.09375
-2.6077497 39.689892 348.20737
-2.3519607 39.562828 347.14398
-2.2447615 39.523315 346.20181
-2.4769342 39.612873 345.56183
-2.2605605 39.440243 344.57227
-0.51501656 39.25769 355.34998
-3.3754005 39.375801 350.59116
-3.7016335 39.373684 350.08231
-1.7094595 38.875381 347.33582
-2.0298626 38.873005 346.8299
-2.1148193 38.875687 346.073
-2.1979601 38.878326 345.31653
-2.0452728 38.885971 344.31219
-2.3593435 38.883682 343.80554
-0.19709666 38.56369 355.02618
-0.06714689 38.571854 354.00488
-1.9632778 38.309063 347.57675
-2.0493639 38.312187 346.81866
-2.1342905 38.315273 346.06186
-1.9824438 38.324059 345.05527
-1.95751 38.194847 344.25024
-2.2714126 38.192448 343.7438
-2.3073411 38.241737 342.92401
-2.8652515 38.058353 341.92633
0.14309302 38.01329 353.73697
0.042754561 38.016644 352.97607
-3.4157531 38.243885 350.56885
-1.8106594 37.836491 348.19009
-1.748554 37.753651 347.31326
-2.0689111 37.751171 346.80746
-1.9185909 37.760921 345.79935
-1.8703883 37.503918 344.18906
-2.0282333 37.511646 342.68161
-3.1184466 37.494129 342.16086
-0.47457275 37.426571 355.26727
-0.11134685 37.443069 353.98578
-2.3297715 37.422138 351.21179
-2.4213524 37.426151 350.44836
-2.7473555 37.42371 349.94113
-1.6814188 37.188488 348.06061
-1.7681314 37.192535 347.30197
-2.0877409 37.190155 346.79547
-1.9373759 37.200905 345.78741
-2.2541625 37.198566 345.28091
-1.8890065 36.945396 344.17731
-2.0467761 36.954121 342.66995
-2.3568945 36.951664 342.16299
-0.4960992 36.860477 355.2569
-0.13278307 36.878578 353.97543
-4.326785e-005 36.889755 352.95554
-2.2066422 36.868282 350.18204
-1.7010568 36.626778 348.04926
-1.3203443 36.645615 346.7879
-1.9706831 36.460163 345.87607
-1.5930049 36.389259 344.67133
-1.9076706 36.386776 344.1655
-2.2205968 36.384361 343.6586
-2.2985663 36.389164 342.90442
-0.52505279 36.549622 356.88599
-0.28511161 36.301739 354.98688
-0.154982 36.313889 353.96582
-0.0214497 36.326168 352.94522
-2.2264612 36.30407 350.1705
-1.7214119 36.065071 348.0386
-1.7627038 35.817471 345.66406
-1.6116842 35.830544 344.65945
-1.9263192 35.828053 344.15372
-2.3171546 35.831047 342.8927
-0.32683086 35.808121 356.71698
-0.43759063 35.722736 356.00247
-0.69027221 35.813541 355.36047
-0.64182675 35.733345 354.47287
-1.7410957 35.503269 348.02719
-1.6303937 35.271824 344.64764
-2.2578635 35.266827 343.63507
-0.12279876 35.158527 356.49686
-0.56285989 35.161625 355.22778
-2.0323646 35.183704 349.89337
-1.7607791 34.941257 348.01578
-1.7401525 34.816284 347.20651
-2.0352898 34.688751 345.89172
-1.6498358 34.712906 344.63651
0.4267599 34.478325 355.91113
-0.17327617 34.502731 354.81149
0.11941959 34.497295 353.6235
-2.08974 34.472477 350.84888
-2.4849296 34.351624 348.76501
-1.6525564 34.12397 347.14441
-1.9709911 34.121372 346.63763
-1.8204778 34.137611 345.62976
-1.9019895 34.14452 344.87341
-1.9816701 34.151489 344.11752
-2.8408294 34.137123 343.35123
0.51159751 33.781582 355.84772
0.17564633 33.77877 355.34476
0.072405703 33.78561 354.58234
0.20382872 33.802147 353.56107
0.10458592 33.809082 352.79984
-1.7688043 33.785839 350.53088
-2.2701304 33.797626 348.50024
-2.1548593 33.57494 345.11108
-2.2349064 33.582413 344.3548
0.15335673 33.212986 355.33499
-0.049921218 33.227814 353.80914
-1.7894017 33.221638 350.51999
-2.202899 33.226711 349.25055
-2.0546155 33.244728 348.23471
-1.9259629 32.991043 347.37402
-1.542924 33.019825 346.11356
-2.2536457 33.022797 344.3429
-0.10161182 32.636448 355.58609
0.2602911 32.665894 354.30322
-0.072135337 32.663029 353.79944
-0.73352462 32.657364 352.78979
-1.8099988 32.657238 350.50906
-1.8995075 32.665405 349.74625
-1.9878566 32.673634 348.98456
-1.9456161 32.429237 347.36267
-1.795823 32.448627 346.3526
-2.1924593 32.454502 345.08719
-2.2724311 32.462978 344.33099
0.10798424 32.081333 355.31613
0.23871784 32.101009 354.29272
-0.093723826 32.098145 353.789
-0.42520425 32.095264 353.28482
-0.52266306 32.103691 352.52249
-1.8306416 32.092739 350.49817
-2.0941644 32.119007 348.21173
-1.7310947 31.878826 347.099
-1.815431 31.887714 346.34128
-1.7588931 31.749542 343.83936
0.085603245 31.515348 355.3063
0.21638182 31.536026 354.28296
-0.11599881 31.533163 353.77927
-0.44673154 31.530176 353.27438
-0.31172597 31.551006 352.25528
-1.5093582 31.409979 350.18048
-1.2574604 31.301266 349.11313
-1.9849682 31.305214 347.33987
-1.8617268 31.096233 343.96002
-0.038418286 30.958595 354.53281
-0.46831983 30.965092 353.26395
0.11297426 30.740458 351.88443
0.24906254 30.762497 350.86917
-0.16811296 30.769361 349.60593
-1.2779827 30.738665 349.10229
-1.1325102 30.761087 348.08936
-2.0046668 30.743105 347.32846
-1.8539912 30.765684 346.31784
-1.5685781 30.539833 344.45541
-0.29323268 30.379961 354.78268
-0.15995345 30.40279 353.75897
0.18853924 30.167181 352.63452
0.32245985 30.190283 351.61853
0.79580241 30.09783 350.29889
0.70235562 30.107986 349.54196
0.48608807 29.976429 348.98795
-1.6204334 30.173124 348.58551
-2.0244112 30.180895 347.31705
-1.7238392 30.122755 346.18927
-1.6567076 30.051662 345.31598
-1.5873637 29.980616 344.44345
-0.20693117 29.684383 354.7193
-0.074278466 29.708418 353.69641
-0.064796291 29.589762 352.88165
0.070054017 29.613976 351.86371
0.88113767 29.408449 350.23737
0.78779739 29.419102 349.48059
0.46554866 29.41613 348.97708
-1.1728085 29.637583 348.06702
-2.0441251 29.618591 347.3056
-1.4452096 29.399109 345.94498
-1.5262365 29.410227 345.18768
-1.6061647 29.421398 344.43152
0.011411607 29.014244 353.63385
-0.087056421 29.025282 352.87192
0.28014913 29.064703 351.59708
0.85979009 28.847555 350.22711
0.76647979 28.858809 349.47037
0.67506176 28.870014 348.71402
-1.1926448 29.075779 348.05548
-2.0638845 29.056181 347.29413
0.29187924 28.418694 352.45044
0.59637684 28.388342 351.27991
1.0690284 28.301374 349.96237
0.74587953 28.298309 349.45941
0.65446097 28.310116 348.70313
-1.7422857 28.379955 346.9809
-1.2512619 28.293186 345.67178
-0.26527971 27.868835 353.87296
0.4396331 27.798676 352.28568
0.91199303 27.713383 350.96359
1.0476193 27.740877 349.95212
0.72521824 27.737812 349.44846
0.63386029 27.750118 348.69223
-1.8033177 27.661579 347.93146
-1.4213287 27.705126 346.66849
-2.2848923 27.684231 345.90347
-2.5991766 27.681574 345.39526
-0.28694379 27.303148 353.86243
0.75616515 27.123226 351.96744
1.1207274 27.167511 350.69843
1.1333195 27.053083 349.8909
0.81108642 27.049913 349.38745
0.61324435 27.19002 348.6813
-1.8238095 27.098875 347.92068
-1.4403569 27.143917 346.65634
-2.0703137 27.138504 345.64127
-2.1494963 27.151894 344.883
-0.54138917 26.720922 354.11127
0.3964844 26.671701 352.2648
0.8697415 26.589998 350.94217
0.82342696 26.646105 348.41754
-1.6099476 26.552591 347.65634
-1.2273353 26.599218 346.39395
-2.0899522 26.577291 345.62988
-2.1683874 26.591179 344.871
0.71307629 25.997549 351.94656
0.8482421 26.028111 350.93176
1.3340585 25.83613 348.81155
-1.1637626 26.024137 347.14059
-1.2463791 26.038408 346.38177
-2.1089039 26.016081 345.6178
0.74475676 25.370136 351.05746
1.0704814 25.371407 349.85861
0.93673265 25.337698 349.17035
-1.0345589 25.384022 347.01248
-1.473086 25.347794 345.81421
-1.5530021 25.362589 345.05661
-0.42589721 24.854071 353.10941
1.0197046 24.651419 350.80948
0.92579633 24.666197 350.05209
0.83434451 24.681126 349.29434
-1.1190639 24.88612 347.87668
-1.1527587 24.678343 345.50394
-1.000047 24.711914 344.49811
-0.045607947 24.252783 352.6864
0.3232502 24.305099 351.41031
0.90505928 24.105 350.04108
-1.1396781 24.324022 347.86578
-1.7726103 24.318371 346.85062
-1.1724135 24.118332 345.49258
-1.2517658 24.13431 344.7355
0.54436499 23.648413 352.04184
0.88360512 23.543808 350.0307
0.011653582 23.51815 349.27429
-0.27030391 23.676605 347.80643
-1.8600808 23.704409 348.61465
-1.6303566 23.566391 346.76553
-0.88858956 23.493469 345.1994
0.2381328 23.12636 353.17075
0.81978542 22.930103 351.79288
-0.0090372115 22.956358 349.26331
-0.41510993 22.969919 347.99841
-2.1146321 23.120771 348.85773
-1.5958375 22.941261 346.72934
-1.2110512 22.997911 345.46906
-0.015592963 22.54113 353.41898
1.2574199 22.40761 351.27145
-0.029758446 22.394461 349.25229
-0.43572477 22.40852 347.98749
-0.91777962 22.440411 345.96457
-0.99766731 22.457907 345.207
0.53279716 21.891439 352.8418
1.0061638 21.82478 351.51642
0.91277206 21.842182 350.75671
-0.19274952 21.793947 350.25613
-0.050494771 21.832367 349.2413
-0.22421736 21.867884 347.72354
-1.169526 21.859184 346.2034
0.61862117 21.201637 352.7807
1.2135365 21.283443 351.25122
-0.071231104 21.270275 349.23026
-0.159283 21.288551 348.47162
-1.0247791 21.261137 347.71036
-1.1079332 21.279631 346.95096
-1.1886001 21.298176 346.19119
0.82738304 20.659214 352.5127
1.3601409 20.669924 351.08807
0.99248731 20.487211 349.87775
0.90223801 20.505823 349.11972
-0.17927203 20.726854 348.4599
-1.0446914 20.699039 347.69876
-1.1277847 20.718025 346.93939
-0.90994853 20.585211 345.94824
1.0355185 20.117796 352.24542
0.94122529 20.136629 351.4848
1.5215113 19.951748 350.11679
1.2006515 19.948345 349.61331
0.88151586 19.945028 349.10864
-0.54900831 19.971502 345.57098
0.91952831 19.573746 351.47427
1.4999501 19.390862 350.10635
1.1798683 19.387457 349.6022
-0.8633576 19.534584 346.63229
1.1128228 18.762812 351.36407
1.4783888 18.829977 350.09592
0.8399955 18.823145 349.08655
0.52191257 18.819912 348.58157
-0.65135229 18.877691 347.26318
1.3206813 18.22438 351.09793
1.4575143 18.268885 350.08472
0.8192125 18.262152 349.07544
0.7310366 18.282911 348.31812
-0.44550595 18.249626 347.05182
1.206596 17.683266 350.32864
0.79839903 17.701061 349.06439
0.71029896 17.72242 348.30707
-0.29653886 17.639225 346.89105
1.2773473 17.099915 351.07681
1.1856916 17.121477 350.31738
1.0957906 17.1432 349.55838
0.77758569 17.139872 349.05325
0.69024813 17.161724 348.29529
-0.17112477 17.130407 347.53534
1.2556499 16.537533 351.06622
1.1640548 16.55969 350.30688
1.0742297 16.581913 349.54788
0.7567724 16.578583 349.04211
0.89937067 16.626629 348.03183
-0.19108367 16.569206 347.52365
1.234624 15.975147 351.05496
1.1430893 15.997806 350.29562
1.1609796 15.898084 349.48773
1.0723442 15.921062 348.72992
0.10336339 16.010984 348.01898
-0.21177489 16.007912 347.5127
0.98335791 15.385917 351.2999
1.7042735 15.268218 348.92233
0.75768477 15.258355 347.40799
0.96161526 14.822837 351.28928
1.6834285 14.708229 348.91119
0.50759161 14.670969 347.64844
0.76768154 14.184101 350.6554
1.2046987 14.09238 349.4068
1.3464085 14.14476 348.39554
0.48757103 14.110473 347.63675
1.1838243 13.531089 349.3956
1.3255942 13.584569 348.38443
1.0104409 13.581376 347.87955
1.0223256 12.915462 350.3981
1.7265949 12.906823 348.83109
1.7615805 13.082011 347.86972
1.230546 12.382518 350.13232
2.0412312 12.255419 348.51932
1.4380485 11.850478 349.86725
2.7009683 11.785747 347.75452
1.7529436 11.199186 349.55429
2.2264214 11.16688 348.24579
1.8385776 10.518157 349.49582
2.2055757 10.607889 348.23468
2.3798928 9.9013214 348.93124
2.1853557 10.048801 348.22272
3.1441181 9.3189573 348.11853
2.003473 8.8685207 349.20892
2.5788734 8.216115 348.6304
3.081563 7.6452518 348.08505
3.0606403 7.0872359 348.07385
2.6755972 6.4284873 349.32104
2.5882823 6.4597821 348.56448
2.6539125 5.8687568 349.31042
2.5673451 5.9005957 348.55325
2.9666331 5.2274809 348.99957
9.642909 4.0402417 339.70865
3.196701 3.5626678 356.207
6.2514386 3.6051342 338.26904
-242.75722 0.086015336 794.41681
-11.053 107.38 354.85999
-10.466 106.828 354.98199
-11.0589 106.759 354.50699
-10.4709 106.324 355.33899
-11.0648 106.139 354.15399
-5.7336602 105.659 355.211
-6.9223399 105.642 354.98401
-10.4757 105.819 355.69501
-11.0366 105.475 354.39801
-5.14464 105.107 355.32599
-5.74508 105.042 354.862
-10.5123 105.589 356.88
-11.0078 104.811 354.642
-11.5996 104.743 354.16501
-5.1505198 104.546 355.32901
-5.7509799 104.481 354.86401
-6.3498902 104.416 354.39899
-6.9428501 104.408 354.284
-11.0801 104.796 356.289
-11.6053 104.181 354.16599
-4.5612001 103.994 355.44299
-5.7335 103.834 354.91101
-6.3235998 103.699 354.29199
-11.0512 104.071 356.17899
-11.611 103.62 354.16699
-2.7922699 103.491 355.69299
-4.5671401 103.433 355.44601
-5.09799 103.109 355.11401
-5.6925001 103.1 355.00201
-6.2866602 103.091 354.888
-11.6167 103.113 354.522
-12.207 102.991 353.689
-3.37431 102.568 354.50601
-6.2925 102.53 354.89099
-12.2139 102.539 354.397
-2.7546401 101.86 354.509
-3.35694 101.798 354.04999
-3.95014 101.79 353.94
-4.5429902 101.781 353.82901
-6.2983599 101.97 354.89301
-11.1039 102.481 355.93701
-11.6281 102.097 355.233
-12.2202 102.031 354.75299
-2.7605901 101.302 354.51199
-3.3629 101.24 354.05301
-3.9561 101.232 353.94299
-4.5489502 101.223 353.832
-10.5105 102.145 357.49301
-11.0392 101.652 356.07001
-12.2254 101.414 354.39899
-2.7577801 100.795 354.866
-3.3606999 100.734 354.40701
-3.96209 100.673 353.94601
-4.5549402 100.664 353.83499
-10.5177 101.524 357.13599
-11.0467 100.98 355.35901
-12.2326 101.012 355.465
-2.7548599 100.288 355.22
-3.3666999 100.175 354.41
-4.5609498 100.106 353.83701
-10.502 100.78 356.58401
-11.0508 100.522 356.07199
-12.8301 100.383 354.983
-2.76087 99.728203 355.224
-3.37274 99.616402 354.41299
-3.9741499 99.556099 353.952
-5.1594901 99.537804 353.72699
-9.92908 100.508 357.979
-10.4605 100.021 356.55399
-11.6508 99.946098 355.94901
-12.2434 99.777397 354.755
-2.7669101 99.168198 355.228
-3.3787999 99.057297 354.41599
-3.89992 98.787598 354.436
-4.4935799 98.778397 354.32401
-5.1263499 98.874199 353.97101
-9.9350204 99.940804 357.98099
-10.4051 98.829201 354.19901
-10.9999 98.613899 352.668
-5.0928402 98.209396 354.21399
-10.4094 98.317902 354.55399
-11.0058 98.054001 352.66901
-3.3743701 98.038902 355.125
-3.9771099 97.979698 354.66199
-6.9435701 97.931602 354.08899
-10.4168 97.7052 354.202
-10.963 97.368301 353.10699
-11.5767 97.3284 352.12
-3.9508801 97.382103 355.06
-4.52845 97.236099 354.64001
-5.1048102 97.089996 354.21899
-5.7309799 97.235603 354.21399
-6.2903099 97.07 353.98901
-6.8825002 97.059799 353.87201
-10.4211 97.192703 354.556
-10.9461 96.670799 352.79999
-11.5347 96.658997 352.67401
-4.4949899 96.686203 355.39001
-5.10395 96.578903 354.573
-5.7037702 96.520103 354.10699
-6.29633 96.510002 353.991
-6.8885198 96.499702 353.87399
-10.427 96.629997 354.55801
-12.1287 96.086601 352.548
-5.7098298 95.960098 354.10999
-6.3023801 95.949898 353.99301
-6.89959 95.891403 353.526
-10.4329 96.0672 354.55899
-10.98 95.7183 353.34399
-11.5464 95.5382 352.67499
-12.1345 95.478302 352.198
-4.5666199 95.922203 355.97101
-5.1091499 95.5056 354.92999
-5.71591 95.400002 354.112
-6.3084602 95.389702 353.996
-6.90063 95.379204 353.87799
-10.4372 95.552399 354.914
-10.9611 95.084602 353.505
-12.1403 94.918297 352.198
-5.1152401 94.944397 354.93301
-5.7156801 94.887001 354.466
-6.3145599 94.829399 353.99799
-6.9067202 94.818802 353.88
-7.4984999 94.808098 353.76099
-12.1462 94.404999 352.54999
-5.1213598 94.383202 354.936
-5.7218099 94.326202 354.46899
-6.2864699 94.114502 353.89001
-10.5158 94.880203 356.20801
-11.0064 94.210503 354.32401
-11.5859 94.115402 353.92499
-12.1519 93.936996 353.25201
-5.1275101 93.821899 354.939
-5.72159 93.811501 354.823
-10.4785 93.981201 355.10999
-12.1576 93.421204 353.60599
-3.3492801 93.290901 355.28201
-3.9526 93.235397 354.819
-4.5543699 93.179703 354.354
-5.7277598 93.25 354.82501
-6.9147902 93.2285 354.59
-7.50773 93.217499 354.47101
-9.8635998 93.401802 355.754
-10.4612 93.297897 354.91901
-11.6448 93.319901 355.021
-12.1638 92.813301 353.25299
-3.35551 92.729698 355.28601
-3.93332 92.475998 354.35999
-4.5267501 92.465698 354.246
-5.1198201 92.455101 354.13101
-5.7125201 92.444504 354.01501
-7.4338298 92.436501 354.95499
-9.8696604 92.836998 355.755
-10.4673 92.7341 354.92001
-12.2428 92.697601 354.539
-3.35287 92.212997 355.642
-4.4990301 91.751999 354.13901
-5.0919099 91.741302 354.02301
-5.6844201 91.7304 353.90701
-9.8706102 92.362396 356.47
-12.2488 92.223602 355.25
-3.3591399 91.6511 355.64499
-3.9631801 91.596802 355.17999
-5.0980802 91.181099 354.026
-5.6905799 91.170197 353.909
-6.2827101 91.159103 353.79199
-9.8767004 91.796402 356.47101
-10.4777 91.650597 355.27701
-11.073 91.549599 354.44101
-12.255 91.569298 354.54001
-13.3197 90.859703 352.17999
-3.3743501 91.045601 355.29599
-3.9437001 90.8386 354.72101
-4.5114102 90.631699 354.14499
-5.10428 90.620796 354.02899
-5.6967702 90.609802 353.91199
-6.2888899 90.598602 353.79401
-9.8854599 91.186096 356.116
-10.4125 90.732597 354.69901
-11.0059 90.676697 354.21799
-12.224 90.849998 354.42801
-12.7014 90.157303 352.20001
-13.2874 90.101501 351.71799
-3.9074399 90.167297 354.96399
-4.5176401 90.071404 354.14801
-5.1104999 90.060501 354.03201
-5.7029901 90.0494 353.91501
-6.2951002 90.038101 353.79599
-10.4228 90.083099 353.99301
-12.1929 90.131104 354.31699
-12.7074 89.596497 352.20001
-13.2934 89.541 351.71899
-15.2369 90.681198 356.38199
-5.1167598 89.5 354.035
-5.70924 89.4888 353.91699
-6.3013401 89.477501 353.79901
-9.8351803 89.574997 354.47299
-10.4289 89.520401 353.995
-12.7135 89.077301 352.55099
-13.2993 88.980499 351.71899
-4.53198 89.1632 355.164
-5.1083698 89.022499 354.73901
-5.7155099 88.9282 353.92001
-6.30761 88.916801 353.80099
-6.8993201 88.905197 353.68201
-9.8385401 89.053596 354.82901
-10.433 88.999298 354.349
-12.1322 88.487602 352.33099
-12.7193 88.474403 352.20099
-13.3053 88.419998 351.71899
-4.50454 88.554199 355.56299
-5.1146498 88.4608 354.742
-5.7218199 88.3675 353.923
-6.9056001 88.344398 353.68399
-9.8446903 88.4897 354.82999
-10.4433 88.3535 353.64401
-12.1382 87.926598 352.332
-12.7254 87.9133 352.20099
-13.2916 87.742401 351.314
-5.10743 87.743797 354.203
-5.7137399 87.651802 353.38501
-6.8875699 87.550903 352.87601
-9.8508701 87.925697 354.832
-10.4235 87.716103 353.806
-11.004 87.584801 353.05399
-12.1437 87.405602 352.68399
-5.0794101 86.914299 353.47501
-5.6778498 86.863197 353.008
-6.2683702 86.851402 352.888
-6.8585 86.839401 352.76801
-7.4482398 86.827301 352.646
-9.8599005 87.321404 354.479
-10.9713 86.909798 353.29501
-11.5605 86.896698 353.16599
-12.1498 86.843903 352.68399
-12.7375 86.790802 352.202
-13.3234 86.737801 351.71899
-5.0932598 86.315498 353.129
-5.6841502 86.303703 353.01001
-6.2746501 86.291801 352.89099
-6.8647699 86.2798 352.76999
-7.4545002 86.267601 352.64801
-11.5654 86.373703 353.51901
-12.1553 86.321198 353.03601
-12.6926 86.052002 352.28699
-13.292 86.063301 351.957
-13.8757 85.971901 351.12399
-5.0978899 85.985199 354.371
-5.6904702 85.744102 353.013
-6.2809701 85.732101 352.89301
-6.8710699 85.720001 352.772
-7.4607902 85.707703 352.64999
-10.4242 86.067497 354.59601
-10.9799 85.862701 354.00101
-11.5715 85.810799 353.51999
-12.1615 85.758698 353.03699
-13.2593 85.3116 351.49701
-5.0907998 85.272102 353.83301
-5.6898298 85.222298 353.36499
-6.2873101 85.172401 352.896
-6.8773999 85.160202 352.77399
-7.4671102 85.147797 352.65201
-10.3902 85.388901 354.83801
-10.9841 85.337502 354.35599
-11.5776 85.247803 353.521
-12.1676 85.196198 353.03699
-13.2649 84.713501 351.14801
-5.1250801 84.900101 354.298
-5.6961999 84.662003 353.367
-6.2936802 84.612503 352.89801
-6.88376 84.600304 352.77701
-7.4734502 84.587898 352.65399
-10.9883 84.811203 354.711
-11.5798 84.797897 354.58099
-12.1738 84.633598 353.03799
-12.7108 84.392197 352.522
-13.2705 84.116302 350.79901
-5.1238899 84.375603 354.65201
-5.69558 84.138397 353.71899
-6.28722 84.126198 353.599
-12.2035 84.2715 354.05499
-12.6915 83.68 351.98099
-13.2766 83.556602 350.79901
-5.1022701 83.6259 354.19199
-5.7020001 83.5774 353.72198
-6.2936201 83.565102 353.60199
-6.8907099 83.516403 353.13101
-7.4862199 83.467598 352.65799
-11.5921 83.668198 354.58301
-12.111 83.132401 352.11301
-12.6981 83.0467 351.28201
-5.1087098 83.0644 354.19501
-5.7084398 83.016296 353.72501
-6.3000498 83.003998 353.604
-6.89714 82.955704 353.133
-11.6355 83.292198 355.05399
-12.1171 82.571098 352.11499
-12.7047 82.380402 350.23801
-5.11519 82.502701 354.198
-11.0475 82.775597 355.54001
-11.6031 82.573997 354.94101
-12.1233 82.009697 352.11499
-12.7105 81.925797 351.28201
-14.4669 81.953003 351.57599
-5.1139302 81.9758 354.552
-5.7142501 81.928596 354.08099
-11.6093 82.008301 354.94199
-12.1295 81.448196 352.116
-12.7167 81.365303 351.28299
-14.473 81.391296 351.57599
-5.0998001 81.195297 353.742
-5.6915598 81.1828 353.62201
-6.2829399 81.170097 353.5
-6.9166002 81.273003 353.14001
-11.6171 81.407898 354.58801
-12.1338 80.954399 352.81699
-4.5250101 80.897202 355.02899
-5.0780101 80.4515 353.285
-5.6763501 80.405502 352.815
-11.0623 81.145103 356.258
-11.6219 80.876801 354.944
-12.1429 80.291397 351.767
-13.3146 80.296402 351.84799
-4.53159 80.334198 355.03201
-5.0844998 79.8909 353.28799
-5.6828399 79.845398 352.81799
-7.4717498 80.054398 353.60901
-11.6282 80.310799 354.94501
-12.1473 79.795898 352.46799
-12.6549 79.513802 352.45901
-13.2681 79.556099 351.93201
-13.8667 79.57 351.60001
-14.4366 79.4618 350.95901
-4.5337901 79.595497 354.14099
-5.0910301 79.330299 353.29099
-5.6893702 79.285202 352.82101
-9.2004204 79.085098 351.76599
-10.9666 79.424103 354.49399
-12.1525 79.2658 352.819
-13.8332 78.8582 351.48801
-14.4168 78.8116 351.00101
-5.0896001 78.8013 353.642
-5.69592 78.724998 352.82401
-6.2858801 78.711998 352.70099
-6.8754501 78.698898 352.578
-8.6085701 78.478798 351.74301
-9.2372103 78.582001 351.37701
-11.0423 79.290398 356.147
-12.7455 78.752502 353.39099
-13.3336 78.674202 352.55099
-14.4217 78.219002 350.65201
-5.0880599 78.271202 353.996
-5.6876798 78.226997 353.52399
-6.882 78.138397 352.57999
-8.0131598 77.893204 351.95001
-8.58183 77.739601 351.28601
-9.16819 77.7258 351.15799
-9.7541304 77.711899 351.02802
-11.0487 78.722603 356.14899
-12.7517 78.188301 353.39099
-13.3001 77.961403 352.439
-13.8449 77.703903 351.13901
-14.4279 77.658302 350.65201
-5.0946498 77.709198 353.99899
-5.6942601 77.665497 353.52701
-6.8885798 77.577797 352.58301
-7.4401698 77.416298 352.34698
-7.9962401 77.224197 351.76199
-8.5882597 77.180298 351.28699
-9.1745996 77.166496 351.159
-9.76052 77.152496 351.03
-12.758 77.623901 353.392
-13.2666 77.187698 351.625
-13.8517 77.172997 351.48801
-14.4341 77.097504 350.65201
-5.0931401 77.177399 354.35199
-5.6933298 77.134102 353.88
-6.2919598 77.090698 353.40701
-6.8889198 77.047203 352.93399
-8.0026999 76.664398 351.76401
-8.5947199 76.620903 351.289
-9.1810398 76.607002 351.16101
-9.7669296 76.593002 351.03101
-12.7643 77.059502 353.392
-13.2728 76.625801 351.625
-13.8578 76.611099 351.48801
-3.39098 78.0093 360.746
-4.0412502 78.116203 360.38199
-5.6999698 76.571899 353.883
-6.2610402 76.380997 353.298
-6.8579402 76.338097 352.82501
-7.4155998 76.1474 352.23999
-8.0091896 76.1045 351.76599
-8.6012001 76.061501 351.29099
-9.1875 76.047501 351.16199
-9.7733698 76.033501 351.03299
-12.7305 76.345596 353.27899
-13.3187 76.301399 352.79099
-13.8641 76.049103 351.48801
-3.3877499 77.468498 361.11401
-4.0111699 77.393997 360.271
-4.6314902 77.319702 359.42999
-6.2155199 75.729301 353.888
-6.82687 75.629303 352.716
-7.4221301 75.586899 352.242
-8.0157099 75.544403 351.76801
-8.6077099 75.5019 351.293
-9.19802 75.459396 350.81699
-11.5274 75.5457 352.03201
-13.2849 75.559601 352.328
-14.4549 75.472099 351.35001
-3.39466 76.895798 361.11899
-4.0180898 76.822403 360.27499
-6.3516798 76.052299 356.77701
-6.8134899 75.153099 353.767
-7.36447 74.6763 351.327
-7.99857 74.876999 351.57999
-8.5758696 74.795197 351.18301
-9.2004995 74.9282 351.16501
-11.5338 74.983704 352.03201
-13.2909 75.024696 352.67899
-13.8774 74.9814 352.19
-3.37415 76.142998 360.64301
-3.98739 76.1007 360.16299
-4.57024 75.878998 359.20801
-5.2089 76.0159 359.203
-6.3450398 75.337799 356.11099
-7.3709602 74.117104 351.32901
-11.5402 74.4216 352.03299
-13.2972 74.460899 352.67999
-13.8836 74.418098 352.19
-3.34343 75.421204 360.53101
-3.9758601 75.321503 359.32999
-4.5771098 75.308601 359.211
-5.1862898 75.2668 358.73199
-6.3208499 74.595299 355.647
-6.8597398 73.891602 352.02701
-7.3896599 73.504501 350.64001
-8.5504198 73.529503 351.07599
-9.2136097 73.808601 351.168
-10.9598 73.874001 352.168
-11.5466 73.859398 352.034
-13.3035 73.897003 352.67999
-14.4773 73.894402 352.755
-15.6495 73.863998 352.474
-3.3582499 74.490601 358.34201
-4.56393 74.532799 358.38101
-5.2097001 74.640297 358.017
-6.28929 73.881599 355.53601
-6.82829 73.184998 351.918
-7.39012 72.972298 350.98801
-8.5569201 72.970001 351.078
-9.1814699 73.102097 351.05899
-10.9264 73.164398 352.056
-11.5531 73.297096 352.035
-13.3095 73.359802 353.03201
-13.8968 73.344803 352.89401
-14.4836 73.329803 352.755
-15.0684 73.287804 352.263
-3.34354 73.813797 358.151
-3.95262 73.773399 357.67499
-5.1405902 73.7743 357.79199
-6.2887301 73.342796 355.89301
-6.7967501 72.478798 351.80899
-7.3967099 72.413399 350.98999
-7.7384 70.0783 339.306
-9.1492395 72.396103 350.95001
-10.893 72.4552 351.94501
-12.5423 71.668701 347.06601
-13.9031 72.780197 352.89499
-14.4899 72.765099 352.75601
-15.0732 72.697403 351.91199
-3.3504601 73.245399 358.155
-3.9595301 73.205498 357.67899
-4.55793 73.1922 357.55899
-5.68713 72.289299 352.98099
-7.1534801 69.368103 338.68701
-8.2837696 69.337997 338.42599
-10.905 71.842796 351.24899
-12.5122 70.8965 345.93701
-13.9096 72.241302 353.24799
-14.4953 72.174599 352.40399
-15.0795 72.133698 351.91101
-2.7467699 72.716202 358.634
-3.3573999 72.676903 358.159
-3.96647 72.637398 357.68301
-4.5648499 72.6241 357.56201
-5.09516 71.766602 353.45599
-5.6636701 71.557098 352.52301
-6.59407 68.843102 338.81699
-7.1598201 68.828201 338.68799
-8.2900696 68.797997 338.427
-10.319 71.346001 352.08099
-11.9391 70.405296 346.754
-12.4881 70.195198 345.37701
-13.8603 71.470398 352.978
-14.4586 71.412804 351.58801
-2.7537501 72.147102 358.63901
-3.3643799 72.1082 358.16299
-3.9734399 72.069199 357.68701
-4.5808101 72.030197 357.20999
-5.6323199 70.8508 352.41501
-6.59374 68.324097 339.142
-7.1661901 68.288101 338.69
-7.7315001 68.273102 338.55899
-11.9455 69.8508 346.754
-12.446 69.479103 345.38199
-14.4236 70.702698 351.47501
-3.3494699 71.432999 357.97198
-3.9519601 71.328903 357.22
-4.5586801 71.290398 356.74301
-5.1088099 70.642403 353.46201
-6.5776401 67.683998 338.96701
-7.1352801 67.608902 338.58701
-7.7060699 67.573502 338.13501
-11.9518 69.296097 346.754
-3.3125801 70.652199 357.58499
-3.9307001 70.590202 356.754
-4.5274401 70.576599 356.633
-5.1156802 70.080101 353.466
-5.64573 69.729202 352.42099
-11.9111 68.556 346.42001
-14.4362 69.576698 351.47501
-3.3194301 70.084396 357.59
-3.93767 70.0233 356.758
-4.53438 70.009598 356.63599
-5.1393399 69.972198 356.159
-5.6525202 69.168297 352.42401
-6.0391202 66.736702 339.59799
-6.61304 66.702103 339.146
-11.3848 68.223396 347.23199
-3.34759 69.469902 356.88199
-3.9446599 69.4562 356.76199
-4.5413599 69.442398 356.64001
-5.1462998 69.405502 356.16299
-5.6594 68.607201 352.427
-6.0082402 66.056801 339.496
-6.5820899 66.022697 339.04401
-7.1544499 65.988602 338.591
-7.6818299 65.834801 338.35699
-2.75722 68.916496 357.005
-3.3754799 68.857803 356.177
-3.9713399 68.844002 356.056
-5.16186 68.816299 355.81201
-5.7272701 68.378502 353.35101
-5.9772801 65.377197 339.39401
-6.5510702 65.343697 338.94199
-7.1233602 65.310097 338.48901
-7.68819 65.294701 338.358
-8.2579098 65.261101 337.90399
-11.9229 66.892899 346.724
-2.7482901 68.160202 356.18701
-3.3385999 68.083603 355.79501
-4.5738902 68.263901 355.93799
-5.1387901 68.082703 355.34799
-5.7020001 67.901703 354.758
-6.5574899 64.803101 338.94299
-7.6945701 64.754601 338.35901
-8.2696104 64.703697 337.58301
-9.1809797 67.4814 353.05701
-11.4229 66.719597 348.448
-11.905 66.216499 346.198
-2.7172501 67.449402 356.078
-3.3236499 67.414398 355.60501
-3.9284899 67.379303 355.13101
-5.1070299 67.372002 355.23801
-5.6800199 66.9235 352.436
-6.57094 64.245102 338.62299
-8.2760201 64.164398 337.58401
-11.9848 66.025002 347.78
-2.7243199 66.883499 356.082
-3.3307099 66.848999 355.60901
-3.93554 66.8144 355.13501
-5.1015401 66.601196 354.07501
-5.65625 66.198799 351.98001
-6.0118999 63.7201 338.75299
-6.5844598 63.688 338.302
-7.7074199 63.673901 338.36099
-8.2824497 63.625 337.58401
-10.8017 65.300003 346.923
-11.9951 65.430298 347.09799
-12.4906 65.129601 346.73901
-2.12339 66.3517 356.56
-2.7314301 66.317596 356.08701
-3.3378 66.283501 355.61401
-3.94262 66.249397 355.13901
-5.0959802 65.834396 352.91599
-5.6939101 65.800499 352.44199
-6.0184398 63.179798 338.755
-6.59798 63.131901 337.98099
-7.7138801 63.133499 338.362
-8.2889099 63.085499 337.58499
-10.2228 64.796997 347.741
-10.7711 64.584702 346.47501
-12.497 64.574097 346.73999
-2.1305399 65.785202 356.564
-2.7497799 65.732101 355.73801
-3.36605 65.6791 354.91299
-5.1029801 65.272301 352.91901
-5.6701002 65.077202 351.98599
-6.0250101 62.639301 338.75699
-8.2186499 62.271999 337.38
-10.7776 64.030296 346.47601
-11.9264 64.034302 346.88
-2.1496501 65.199501 356.215
-2.74084 64.985199 354.92499
-3.30674 64.808899 354.341
-3.9479799 64.919296 353.98099
-5.6462402 64.355202 351.53
-6.0239701 62.114101 339.08099
-6.5971298 62.083401 338.62799
-7.16222 62.067902 338.49701
-7.7268901 62.052299 338.36401
-8.2911196 62.0368 338.23099
-10.236 63.684601 347.74301
-10.7842 63.4758 346.47699
-11.9372 63.444599 346.20099
-2.7209001 64.259598 354.466
-3.3138399 64.245201 354.345
-3.9165101 64.2127 353.87201
-5.1082501 64.165703 353.27399
-6.0229301 61.587898 339.40601
-6.5576301 61.3508 338.27701
-7.1687899 61.527199 338.49799
-8.2532701 61.373901 338.45099
-10.2059 62.969898 347.293
-10.7875 62.937801 346.81699
-13.3506 64.098602 352.871
-2.1494401 63.888599 355.40799
-2.72805 63.695801 354.47
-3.9337299 63.631901 353.52701
-5.0848799 63.442902 352.81601
-6.5483899 60.701 337.78101
-10.794 62.382599 346.81799
-13.3362 63.460602 352.815
-2.14379 63.2757 355.37399
-2.73524 63.131901 354.47501
-5.0525999 62.7383 352.70801
-5.6754899 62.657501 351.194
-9.6719398 62.046398 348.224
-10.7973 61.842899 347.16
-11.9524 61.811501 346.88199
-13.3436 62.878101 352.46301
-2.12514 62.615299 355.302
-2.7537601 62.551498 354.129
-5.05446 62.044498 351.82599
-6.0200801 59.799801 338.66199
-7.6819701 59.6036 337.84
-9.6742897 61.5047 348.56799
-10.2178 61.332699 347.979
-10.8005 61.301998 347.50101
-11.3817 61.271301 347.022
-11.959 61.255501 346.88199
-2.14449 62.034199 354.95499
-2.7497101 62.003799 354.483
-3.91611 61.8009 353.42499
-4.4674401 61.644199 353.18799
-5.0494099 61.5042 352.293
-5.42308 59.138901 338.69
-5.9885101 59.123299 338.56
-6.5535202 59.107601 338.42899
-7.1181102 59.091801 338.29599
-7.6822701 59.076 338.16299
-10.2244 60.7757 347.98001
-10.8038 60.759998 347.84299
-11.9655 60.699501 346.883
-2.13977 61.485001 355.311
-3.2711699 61.141201 354.13901
-3.87363 61.111301 353.66599
-5.0737901 61.051399 352.71799
-5.4811602 58.906502 339.86899
-5.9951601 58.5826 338.56201
-6.5601401 58.566898 338.42999
-7.1247001 58.551102 338.298
-9.0712099 60.249802 348.25299
-10.2311 60.218601 347.98199
-10.8104 60.2029 347.84399
-11.3892 60.187199 347.70599
-11.9675 60.171398 347.56601
-2.1470799 60.919601 355.315
-2.7528601 60.890099 354.84299
-3.8912201 60.533298 353.32101
-5.0809102 60.488899 352.72101
-5.4651098 58.269501 339.694
-5.9938598 58.053501 338.88599
-6.5667801 58.0261 338.43201
-7.13131 58.0103 338.29901
-9.0831299 59.679199 347.914
-11.3958 59.630001 347.70599
-11.9741 59.614201 347.56699
-1.52073 60.2276 355.328
-2.13955 60.184399 354.50601
-2.7716501 60.310799 354.496
-3.32498 60.154598 354.26001
-3.88798 59.984299 353.67401
-4.4888601 59.955299 353.19901
-5.0788999 59.9403 353.073
-5.4261498 57.539001 339.341
-5.9925699 57.5233 339.211
-6.56601 57.4963 338.75601
-7.1379499 57.469398 338.30099
-9.0643902 59.025002 347.729
-11.4025 59.072701 347.707
-11.9386 58.916599 347.457
-1.51465 59.4939 354.517
-2.13204 59.452099 353.69901
-3.8952 59.420601 353.67801
-4.4960499 59.3922 353.203
-5.4762402 57.311401 340.85101
-5.99927 56.9814 339.21201
-6.5652399 56.9655 339.07999
-7.1307802 56.949699 338.948
-9.0145702 58.286598 347.69699
-9.4589796 57.178799 339.263
-10.1681 58.267101 347.76401
-1.522 58.929798 354.522
-2.12726 58.901901 354.052
-3.9024401 58.856899 353.68201
-4.5032802 58.828899 353.207
-5.4685001 56.6628 340.349
-6.0060101 56.439301 339.21399
-7.1374502 56.4076 338.94901
-7.7025199 56.391701 338.815
-8.8604803 56.515598 339.29599
-9.4302101 56.489399 338.83401
-1.5164599 58.377998 354.87701
-2.13462 58.3382 354.056
-3.9201801 58.280701 353.336
-5.9965301 55.916698 339.86401
-6.56352 55.900799 339.73199
-7.1371002 55.875198 339.27399
-7.7091799 55.849499 338.81601
-9.39676 55.811199 338.73099
-10.781 57.206902 347.68399
-1.52386 57.813202 354.88199
-2.14201 57.774399 354.061
-2.75722 57.7356 353.241
-4.5178199 57.702 353.21399
-5.49682 55.677898 340.85699
-6.0033002 55.373501 339.866
-6.57025 55.357601 339.733
-7.1438098 55.332401 339.276
-9.3984499 55.2775 339.056
-10.7706 56.569302 347.289
-1.5312999 57.248299 354.88699
-2.1097901 57.070599 353.952
-2.72505 57.0331 353.133
-3.3264201 57.006699 352.66101
-3.91574 56.991501 352.535
-4.4646301 56.836498 352.297
-6.0249801 54.991699 340.95001
-6.5770001 54.814301 339.73499
-7.1505399 54.7896 339.27701
-9.4000397 54.742901 339.38199
-10.2036 56.018299 347.08801
-1.52582 56.694099 355.24301
-2.08991 56.356701 353.496
-2.7163 56.309898 352.33099
-3.3163099 56.284199 351.85999
-4.4917998 56.253502 351.60699
-5.9837098 54.320099 341.172
-6.5760798 54.279202 340.06201
-7.1502399 54.254902 339.603
-7.7162499 54.238899 339.46799
-8.2818203 54.2229 339.332
-9.4066296 54.198898 339.383
-10.2016 55.481201 347.771
-2.1084599 55.699299 352.577
-2.6956201 55.5998 351.87701
-3.28371 55.5844 351.75201
-3.9115801 55.707699 351.73801
-6.5906 53.727402 339.73901
-8.2885199 53.679298 339.33401
-9.41325 53.6549 339.384
-2.6631701 54.900398 351.76999
-3.25104 54.884899 351.64401
-3.84922 54.860298 351.17401
-6.61268 53.1693 339.09201
-8.2891502 53.143002 339.66
-9.4148703 53.117901 339.70999
-3.2583499 54.324001 351.64899
-5.4790401 52.665401 339.68399
-6.6346402 52.613201 338.44699
-8.3019896 52.591999 339.336
-1.55446 54.102001 352.94199
-2.08971 53.794201 351.90302
-3.2657001 53.763 351.65302
-3.8745601 53.7313 350.83701
-5.4464002 51.988998 339.582
-6.0211601 51.966801 339.125
-6.5866299 51.950699 338.991
-7.15166 51.934601 338.85699
-2.0971501 53.233101 351.90701
-3.2730701 53.2019 351.65701
-3.8711801 53.178699 351.185
-4.9167199 51.600601 340.14401
-5.4136901 51.312901 339.48001
-5.9883599 51.291199 339.02301
-7.1184301 51.2589 338.754
-7.6828098 51.242699 338.61899
-9.7718201 53.343601 352.16599
-2.0920401 52.679001 352.25699
-3.2804699 52.640701 351.66101
-3.8785601 52.618 351.189
-4.92377 51.056702 340.146
-5.9952402 50.748699 339.02499
-7.1178598 50.721401 339.07999
-9.0343103 51.855499 345.80099
-9.7738104 52.786201 352.51901
-2.1245899 52.104198 351.57101
-3.8859601 52.057201 351.19299
-4.89113 50.380199 340.04401
-5.4275398 50.226799 339.48401
-6.0021501 50.2061 339.02701
-7.12468 50.178299 339.08099
-8.4361897 51.170502 345.16
-9.7589397 52.119598 351.978
-1.53122 51.565102 352.04501
-2.1196401 51.5494 351.92099
-2.6749301 51.237202 350.19699
-3.34045 51.494202 350.29199
-4.9191098 49.977402 340.802
-5.4254899 49.687698 339.81
-6.5583401 49.6553 339.54199
-7.1315198 49.634998 339.08301
-8.4306602 50.6273 345.83499
-1.53881 51.0037 352.04901
-2.0989001 50.815701 351.23999
-2.68238 50.678299 350.202
-3.2787001 50.657299 349.733
-4.9166999 49.4361 341.13101
-6.5652399 49.1115 339.54401
-7.1383901 49.091702 339.08401
-8.4731703 50.2127 346.28201
-1.53847 50.648201 353.82401
-2.06654 50.149101 351.362
-2.6898601 50.119202 350.20599
-3.27478 50.103298 350.07901
-3.87011 50.082802 349.60901
-4.92382 48.8904 341.133
-5.4614902 48.738602 340.569
-5.9974298 48.587002 340.00601
-6.5801301 48.564602 339.22198
-8.4318199 49.526299 346.513
-1.54089 49.884998 352.405
-2.0868199 49.584202 351.022
-2.6853001 49.564201 350.55301
-3.2822499 49.544102 350.08301
-3.8775499 49.524101 349.612
-5.4281998 48.061401 340.46701
-5.99581 48.045101 340.33301
-6.5629802 48.028801 340.198
-7.9318199 49.264801 347.54901
-8.4683599 49.113098 347.302
-1.50815 49.186901 352.298
-2.12222 49.163502 351.483
-2.6928301 49.004398 350.55701
-3.2897501 48.984798 350.08701
-3.8742001 48.9688 349.95801
-5.4889202 47.787201 341.66
-7.9251099 48.662701 347.51599
-8.3324003 47.7061 340.98001
-0.92545199 48.786499 353.57901
-1.48856 48.485802 351.845
-2.08919 48.466702 351.375
-2.6882999 48.447601 350.905
-3.2857599 48.428501 350.43399
-3.88169 48.409401 349.96201
-6.0332599 47.090099 341.095
-7.3024702 48.039398 348.603
-7.90415 48.015202 347.444
-8.3041601 47.025101 340.54901
-9.6163998 47.9771 348.39301
-0.93319601 48.2225 353.58401
-1.55077 48.200802 352.76501
-2.0840099 47.908298 351.724
-2.6958799 47.8871 350.909
-3.2933099 47.8685 350.43799
-3.84797 47.715 349.85501
-4.3902998 47.563801 349.61401
-6.0742002 46.769402 342.58899
-0.91427797 47.520699 353.13
-1.50386 47.362701 351.854
-2.10443 47.344601 351.384
-2.70348 47.326401 350.91299
-3.8141699 47.020802 349.74799
-5.5823002 46.968899 348.67099
-6.0450702 46.133099 342.85001
-7.2174301 46.097099 341.26001
-9.6193399 46.861698 349.082
-0.90937901 46.818699 352.32901
-1.51156 46.800999 351.85901
-2.1120999 46.783401 351.38901
-2.7111199 46.765701 350.91699
-3.2969401 46.749599 350.789
-4.3407302 45.455601 341.25
-4.8958201 45.3517 340.612
-5.4636402 45.3353 340.478
-7.1753302 45.4184 341.48499
-7.7019 45.270302 341.241
-0.93113202 46.255402 351.98999
-1.50059 46.057701 350.798
-2.0764 45.950901 350.14099
-2.68557 45.933201 349.32999
-4.32443 44.822201 341.07401
-4.9030199 44.806198 340.61499
-5.4707999 44.789799 340.48001
-7.1406398 44.739201 341.38101
-7.7088499 44.722801 341.24301
-0.910748 45.694599 352.686
-1.48553 45.408001 350.61401
-2.0840399 45.391499 350.14499
-2.6931901 45.374802 349.33499
-4.3316998 44.276199 341.077
-4.9102502 44.260601 340.617
-5.4779801 44.244301 340.483
-6.04529 44.227901 340.34698
-0.93273503 45.131599 352.345
-1.49324 44.848 350.61899
-2.0917201 44.832001 350.14999
-2.70084 44.816299 349.33899
-3.74791 43.743801 341.866
-4.3389802 43.73 341.07901
-5.4851899 43.698601 340.48499
-0.91352999 44.435699 351.89301
-1.50097 44.287899 350.62399
-2.0994201 44.2724 350.15399
-3.17312 43.2113 342.328
-3.75525 43.196602 341.86899
-4.3463001 43.1838 341.082
-4.9247799 43.169201 340.62201
-5.4924202 43.152802 340.487
-0.88024199 43.7402 351.78601
-1.5087399 43.727699 350.629
-2.07882 43.581299 349.707
-3.2037599 42.667999 341.67599
-3.77369 42.6516 341.54401
-4.3432102 42.635101 341.41101
-4.8980799 42.5354 340.772
-6.0253601 42.4608 340.24899
-0.916641 43.181999 351.103
-1.51653 43.1674 350.633
-2.0734 43.0201 350.052
-2.6441 42.234901 342.68201
-0.91023499 42.618801 351.452
-1.52435 42.606998 350.638
-2.63625 41.587299 342.14099
-3.2186699 41.5741 341.68201
-3.7885101 41.557598 341.54999
-4.3579402 41.541199 341.41699
-4.92696 41.524799 341.28299
-5.4955502 41.508301 341.14801
-0.91811103 42.057301 351.457
-1.53219 42.046501 350.64301
-2.03423 41.045101 343.26001
-2.6315999 41.035999 342.47198
-3.2261701 41.027 341.685
-3.7548201 40.881401 341.448
-4.87252 40.8405 341.83499
-5.4611502 40.831902 341.04501
-0.96346498 41.999901 355.04099
-1.49849 41.353802 350.53601
-2.05687 40.617199 344.03101
-2.6268401 40.483601 342.80399
-0.348589 41.442001 355.87399
-0.94283402 41.425499 355.74899
-1.46471 40.6614 350.42999
-2.0364299 39.941898 343.59698
-2.6344099 39.934799 342.80801
-3.2179101 39.923 342.34698
-0.329763 40.744099 355.414
-0.910236 40.602501 354.47299
-2.05704 39.397301 343.271
-2.6007199 39.257301 342.70499
-3.1841199 39.245998 342.245
-3.7546699 39.229401 342.112
-0.29589799 40.043098 355.30499
-0.91826701 40.0359 354.479
-1.48041 39.5406 350.44
-2.03864 38.836399 343.936
-3.15025 38.569302 342.142
-3.7205701 38.5527 342.009
-6.0641499 38.731998 342.33801
-0.28084299 39.388699 355.11801
-0.919662 39.408298 354.078
-1.50216 38.985802 350.10199
-2.0593801 38.292099 343.60901
-2.6449201 38.2817 343.14801
-6.0714798 38.1824 342.34
-0.27336201 38.660599 354.03799
-0.893574 38.655899 353.21701
-1.46707 37.963001 346.62
-2.0438499 37.658798 343.43201
-2.6235001 37.610802 342.716
-3.20678 37.601002 342.255
-5.48948 37.635502 343.14001
-6.0443301 37.5424 342.491
-0.2967 38.101299 353.69601
-0.91626102 38.097599 352.875
-2.0618 37.184502 343.94699
-4.9254198 37.101299 343.27899
-5.4969001 37.084702 343.14301
-0.30480599 37.535801 353.702
-0.93881899 37.540298 352.534
-2.06955 36.633701 343.95099
-4.93292 36.5504 343.28201
-5.4714699 36.4137 342.70901
-0.328132 36.977901 353.35999
-0.947007 36.976299 352.53799
-2.0581601 36.003201 343.66299
-2.67571 36.0826 343.16199
-3.20577 35.9384 342.923
-4.9050202 35.9086 343.435
-5.5117998 35.982899 343.14801
-0.30915999 36.290199 352.905
-0.96959502 36.4203 352.19699
-1.53966 35.769501 345.633
-2.5745101 35.259998 343.61301
-1.47867 35.1702 347.314
-2.0666201 34.962101 344.625
-3.2392001 34.947201 343.69699
-4.93471 34.878502 343.95401
-0.886379 35.0233 352.32901
-2.0460501 34.312099 344.41101
-2.6319699 34.285599 343.72699
-3.2046599 34.268902 343.59299
-4.8919001 34.162998 343.59299
0.207506 34.9562 355.13199
-0.314468 34.5499 353
-0.89449501 34.4594 352.33401
-1.48935 33.924999 345.948
-2.59761 33.6077 343.62399
-3.1700499 33.5909 343.48999
-3.74209 33.5741 343.35501
-4.3137102 33.557301 343.22
0.28237301 34.210999 355.70499
-0.299366 33.901901 352.814
-0.902637 33.895302 352.34
-1.47387 33.289501 345.76901
-4.32129 33.006401 343.22299
0.29205301 33.5485 355.267
-0.29213601 33.326199 353.16699
-0.88106 33.3092 353.03799
-1.46776 32.724098 346.108
-2.0691099 32.637501 344.202
-2.6131201 32.505699 343.63101
-3.7456 32.460499 343.69299
-4.3288898 32.455399 343.22601
0.28916201 32.926601 354.86499
-0.30829701 32.832001 353.71201
-0.91899598 32.766998 352.35001
-1.44761 32.145699 346.78201
-2.0078001 31.935301 344.763
-3.16851 31.913601 344.16299
-3.7414801 31.896799 344.02802
-4.3365202 31.9042 343.229
0.345539 32.164398 354.70001
-0.30854401 32.195599 353.17899
-0.95937699 32.042599 349.38501
-2.0292101 31.395201 344.435
-2.6029401 31.378201 344.30099
-3.17626 31.361401 344.16699
-3.7491701 31.3445 344.03101
0.353558 31.5842 355.056
-0.30483699 31.5268 352.37799
-0.91075498 31.312901 349.24399
-1.50576 31.072901 345.78601
-2.02353 30.8298 344.771
-2.61076 30.825899 344.30499
-3.1840301 30.809 344.17001
-3.75688 30.7922 344.035
0.27449799 30.7027 349.43301
-0.26985601 30.834101 352.271
-0.90512401 30.6817 348.83499
-2.0178499 30.2633 345.108
-2.6186099 30.2735 344.30899
-3.1918199 30.256599 344.17401
-3.7646101 30.239799 344.03799
0.86575502 30.146601 349.90701
0.25033399 30.157 349.099
-0.91328102 30.1227 348.84
-1.5087399 30.119499 348.36899
-2.0257699 29.7097 345.112
-2.6264801 29.721001 344.31299
0.84091002 29.6008 349.573
0.226135 29.6122 348.76501
-0.936252 29.577999 348.505
-1.5159301 29.395201 346.133
-2.0337 29.156099 345.116
-2.62134 29.153799 344.64899
0.87522602 28.9149 349.46799
0.260447 28.9275 348.66
-0.90142602 28.893101 348.39999
-1.48153 28.795 347.14499
-2.0416601 28.602501 345.12
-3.19034 28.5686 344.85001
0.89279097 28.245001 349.02399
0.29482299 28.243099 348.556
-0.86653602 28.208599 348.29501
-1.48963 28.238199 347.14999
-2.61097 28.016001 345.323
-3.1982 28.014799 344.854
0.86772698 27.702101 348.69
0.270495 27.7008 348.22299
