ply
format ascii 1.0
comment PCL generated
element vertex 1577
property float x
property float y
property float z
element camera 0
property float view_px
property float view_py
property float view_pz
property float x_axisx
property float x_axisy
property float x_axisz
property float y_axisx
property float y_axisy
property float y_axisz
property float z_axisx
property float z_axisy
property float z_axisz
property float focal
property float scalex
property float scaley
property float centerx
property float centery
property int viewportx
property int viewporty
property float k1
property float k2
end_header
1.3079834 59.300995 368.07181
2.0217896 59.277065 367.93686
2.5983124 59.753731 364.6351
3.3178558 59.728874 364.50708
4.0379333 59.703781 364.38141
1.777298 58.76889 367.69318
2.5955658 59.215443 364.59482
3.073288 59.217548 364.25903
4.0358887 59.166359 364.34192
5.2449036 60.242302 356.11728
6.358017 60.263969 356.31561
1.3154755 58.178577 368.73584
1.7861481 58.180973 368.39731
3.0705414 58.679066 364.21872
5.2441101 59.694305 356.07867
6.4717865 59.612514 356.41251
1.4099731 57.370453 368.86719
2.0737915 57.48513 368.64594
2.8251648 58.166172 363.96997
3.5467682 58.142281 363.84424
4.0254974 58.143974 363.51028
5.2433319 59.146095 356.04004
6.2256165 59.092941 356.15271
1.4073181 56.83696 368.82712
1.8777466 56.839043 368.4888
2.6278992 57.513077 363.80936
3.414856 57.52766 363.72372
4.0234833 57.605255 363.47064
5.2418823 58.597942 356.00067
1.6335602 56.329197 368.24615
2.3468018 56.307343 368.11188
2.8190765 56.309067 367.776
5.2411346 58.049648 355.96198
1.8725128 55.771667 368.40851
2.3442535 55.773464 368.07169
4.1483154 57.890289 354.8436
1.6276245 55.260693 368.16504
2.341629 55.239578 368.03156
4.5116119 57.210323 355.16467
5.4802551 57.02985 354.5556
-1.1077118 55.106579 367.95367
1.8550568 54.750229 367.58411
2.3280029 54.751797 367.2475
3.2772217 55.567116 361.92172
4.4944153 56.47834 355.17725
5.9737091 56.430161 354.96329
-1.0616608 54.432892 367.99966
-0.099945068 54.390484 368.06537
0.42123413 54.255779 367.81271
1.8525543 54.215153 367.54379
2.3255005 54.216614 367.20721
3.0305939 55.048313 361.66959
4.989563 55.879642 355.58334
-1.0156555 53.759403 368.04572
-0.054031372 53.71809 368.11157
0.66157532 53.698341 367.97504
1.8379974 53.72438 366.75766
-1.0188141 53.222481 368.00449
-0.30194092 53.203194 367.8667
0.41477966 53.18372 367.73053
3.0260925 53.963337 361.5889
3.4453125 54.194492 359.63953
4.8463287 54.428646 357.01599
5.3361053 54.429142 356.68637
-1.2679291 52.706207 367.75934
-0.30511475 52.666573 367.8255
0.41163635 52.647499 367.68927
0.8848877 52.648956 367.35095
2.2974091 52.695145 365.59357
3.5143585 53.377655 361.97421
4.598114 53.90345 356.7565
5.3348236 53.881676 356.64688
6.1159973 54.678772 351.72598
-0.79859924 52.170155 367.37619
0.40919495 52.11113 367.64877
0.88246155 52.112488 367.31046
1.3312683 52.196911 365.47626
1.991806 52.356434 364.50607
3.0139313 52.921158 360.74786
4.3551483 53.333069 357.26816
4.8444519 53.333508 356.93768
5.9162292 54.004749 351.55661
6.6131897 54.12505 351.36057
-0.80172729 51.632427 367.33487
-0.082687378 51.614006 367.19925
0.63520813 51.595634 367.06473
1.3287811 51.65823 365.43567
4.1058502 52.806709 357.00827
4.8431854 52.785862 356.89813
5.332962 52.786247 356.5686
5.9647827 53.308159 351.61444
6.6132507 53.571026 351.32217
-1.0512238 51.113823 367.08853
-0.085845947 51.076584 367.15799
0.38803101 51.077793 366.81891
1.3255615 51.119518 365.39435
1.8024445 51.120445 365.05798
2.2319489 51.25766 364.63388
2.7583771 51.122013 364.38867
4.3520355 52.23772 357.18832
4.8419952 52.238106 356.85855
5.3317108 52.2384 356.52902
5.9654846 52.710964 352.35782
6.7105255 52.689468 352.25839
7.2079468 52.689342 351.93378
7.7051392 52.689095 351.6095
-1.0535278 50.575264 367.04779
-0.33418274 50.557758 366.91183
0.62979126 50.521351 366.98276
1.7888641 50.619987 364.26602
3.3031464 51.131416 360.93329
4.1034546 51.710114 356.92905
4.8407898 51.690178 356.81894
5.9648132 52.157784 352.31876
6.7105408 52.136745 352.22009
7.2072754 52.136551 351.89484
8.1993256 52.094471 352.02682
-2.1443939 50.382088 366.00534
-0.58250427 50.037834 366.66565
-0.10787964 50.038864 366.32587
0.90596008 49.867996 366.48776
3.3502655 50.450394 360.98492
4.1513824 51.022224 356.9837
4.8886566 51.002769 356.87375
5.3270264 51.18214 355.6795
5.7170868 51.584126 352.83374
6.2128601 51.584137 352.50656
6.7098389 51.583954 352.18106
7.4544373 51.563374 352.08359
8.1993713 51.542542 351.98856
-1.6023407 49.669136 366.46527
-0.83161926 49.516846 366.41873
-0.11088562 49.500053 366.28436
1.723053 49.713112 363.33929
2.646347 49.813313 363.33575
4.1992645 50.334713 357.03845
4.93573 50.3158 356.92786
5.3265076 50.63295 355.64056
5.7657166 50.890335 352.8916
6.212265 51.031261 352.46747
6.758194 50.889954 352.23923
7.5026855 50.869858 352.14182
-1.3284302 49.012363 365.96515
-0.11390686 48.96104 366.24292
1.1805725 49.343185 362.7876
3.3389282 49.399693 360.14395
5.3178558 50.197163 353.27594
7.5516205 50.17659 352.20084
-1.0844879 48.454994 366.12958
-0.60847473 48.455826 365.78976
1.1781769 48.800339 362.74661
1.6597137 48.800884 362.41122
3.3371735 48.855 360.10373
4.1961365 49.238159 356.95847
6.8054352 49.606834 353.03595
-1.8305206 47.964417 365.46786
-0.61138916 47.915623 365.74811
0.35667419 47.883427 365.82227
1.4104614 48.274826 362.15842
2.3850708 48.24136 362.24728
4.4425812 48.672192 357.13837
5.2674255 49.232101 353.10077
6.0116882 49.213737 352.99945
6.8048248 49.055054 352.99689
-0.86167908 47.391438 365.49939
0.59896851 47.328136 365.98706
1.2100372 47.611446 361.99756
3.2781067 47.935871 359.16794
5.3153839 48.539154 353.1579
6.0603485 48.52124 353.05731
6.804245 48.503273 352.95782
-1.1126709 46.866108 365.24988
0.42306519 46.603092 365.87317
1.365448 46.639919 365.90482
1.8881683 47.18784 361.74146
3.3244019 47.252518 359.22025
4.8153534 48.020386 352.66666
6.0597839 47.968761 353.01822
0.19915771 46.011486 365.67053
0.92150879 45.996952 365.54037
2.1717529 46.523613 361.2468
3.9433746 47.059792 356.57913
4.4343262 47.05957 356.24973
5.0645599 47.449799 352.85345
5.8106995 47.432861 352.75327
-0.87117004 45.768475 365.37347
0.67337036 45.471825 365.29227
1.3965454 45.457573 365.16406
1.8743591 45.457596 364.82953
2.2178345 45.843418 361.2981
3.0746613 46.175209 358.9241
3.9422607 46.51046 356.53931
5.3131256 46.880264 353.03961
-0.59455872 45.107624 364.87619
0.67112732 44.931763 365.25131
1.3935852 44.918064 365.12244
1.8721161 44.917946 364.7886
2.3504333 44.917915 364.45499
2.8244476 45.643139 358.66617
3.5602112 45.628212 358.55234
4.9273529 45.930542 356.61102
5.4102325 46.049114 353.19547
0.42214966 44.405087 365.0025
1.3913727 44.378319 365.08151
1.8691711 44.378239 364.74698
2.3481903 44.378063 364.41406
2.5749207 45.109909 358.40894
3.9394836 45.411446 356.45886
4.9263153 45.382004 356.5712
0.42004395 43.864346 364.9614
0.89802551 43.864258 364.62527
2.3459473 43.838211 364.37317
2.5732422 44.561821 358.36838
3.3093719 44.547825 358.25421
4.2345428 44.710777 356.73389
5.3139954 45.191975 353.69861
-0.63626099 43.552109 363.96509
0.64944458 43.335793 364.37592
1.3743286 43.323162 364.24896
2.0989075 43.310543 364.12375
2.5716095 44.01363 358.32782
3.3076935 44.000137 358.21365
4.5297089 44.011703 357.00891
5.5564423 44.707722 351.54953
-0.62211609 42.964191 363.95456
0.64657593 42.794392 364.33414
1.3721466 42.782124 364.20792
1.8518524 42.781784 363.8743
3.3067474 43.452202 358.17374
6.3044434 44.112011 352.19254
0.397995 42.264229 364.08466
0.87789917 42.263889 363.74942
1.8496857 42.240643 363.83322
3.3051453 42.90432 358.13318
4.1641388 43.022041 356.57178
6.3039856 43.558243 352.15323
-0.87678528 41.888996 363.66064
0.39520264 41.722134 364.04279
0.87506104 41.721687 363.70755
1.3554535 41.721283 363.37323
3.0545654 42.368114 357.87396
4.525238 42.366199 356.888
5.3574066 42.868294 352.86078
5.8548126 42.867451 352.53622
6.6010284 42.854252 352.439
0.14511108 41.190365 363.7919
0.87294006 41.179344 363.66638
1.353302 41.178841 363.33206
3.0775452 41.751801 357.88126
4.276474 41.828701 356.6283
5.4048309 42.177208 352.91861
5.9021149 42.176266 352.59418
6.8966675 42.151863 352.7233
-0.60185242 40.67775 363.12119
0.6232605 40.646988 363.41507
1.3397522 40.655907 362.5372
2.1716003 41.002094 358.6452
4.2755432 41.27927 356.58832
5.4044647 41.623642 352.87924
6.1504669 41.611515 352.78079
6.8962402 41.599281 352.68405
-0.60391235 40.13332 363.07983
0.62046814 40.103992 363.37308
1.3369293 40.112206 362.49524
2.8023529 40.732155 357.53455
4.0260468 40.740124 356.32785
5.4033813 41.070019 352.83917
6.150116 41.058334 352.74142
0.12309265 39.579029 362.91168
1.9694672 40.001411 358.35516
2.7498932 40.096027 357.48459
4.655899 40.52742 352.89929
5.4030457 40.516251 352.79974
6.1490173 40.505112 352.70142
-0.26126099 38.960804 362.58084
0.60241699 39.03405 362.53491
1.8258362 39.007427 362.83365
3.7748413 39.649292 356.02658
4.6039276 39.885345 352.84988
5.4508209 39.826103 352.85873
6.3547211 39.782536 352.91473
1.6723785 38.208317 362.76666
2.1546631 38.824341 357.71484
4.500946 39.155212 352.79138
5.9959564 39.118423 353.36725
0.3495636 37.952873 362.2402
1.9070892 37.671494 362.18384
2.7453766 38.447094 357.36206
0.39544678 37.275761 362.29196
1.421875 37.128723 362.474
2.1509857 37.12075 362.353
2.6419373 37.723602 357.30301
3.5045624 38.048321 353.36392
4.7494659 38.037991 352.93674
6.2424927 38.005356 353.51199
1.171936 36.591354 362.22119
1.9022675 36.583759 362.10043
2.3858643 36.582527 361.7699
2.6404724 37.17363 357.26212
4.0195007 37.438385 356.08575
5.2475281 37.469143 353.34601
6.2421875 37.453178 353.47263
3.1296692 36.622311 356.89209
3.5738068 36.75491 356.46848
4.0187225 36.887665 356.04556
4.500885 36.923813 353.40649
5.4963379 36.908878 353.53098
6.7369385 36.887207 353.88113
0.46466064 35.674618 361.47504
1.4038239 35.506504 361.5947
2.1353149 35.49971 361.47565
4.1169739 36.058765 356.96259
1.1534424 34.966297 361.34079
2.1332703 34.954979 361.43423
2.7320557 35.256859 357.33255
3.1274719 35.521721 356.81094
3.6192169 35.52047 356.48352
4.7485504 35.810104 353.55005
6.5830688 35.521656 353.77399
0.65388489 34.429535 360.87369
1.6361084 34.419083 360.96765
2.3695679 34.413158 360.85092
3.866272 34.964989 356.66208
4.9543457 35.09251 353.76208
1.3861389 33.877197 360.7132
1.8723297 33.875622 360.3829
5.3411255 34.425781 354.11438
6.0853119 34.4198 354.01532
1.8703156 33.329113 360.34134
2.6794891 33.739044 357.11273
3.1705933 33.737648 356.78455
3.6156311 33.86871 356.36136
5.3402557 33.873466 354.07416
0.51286316 33.065685 358.26962
3.4655762 33.051533 357.05908
4.0939789 33.333271 353.68671
5.3393707 33.321045 354.034
1.8663635 32.235558 360.25812
0.7935791 32.424706 358.50864
3.4641571 32.501652 357.01816
4.0931244 32.779167 353.64636
5.0896149 32.771557 353.77029
0.50889587 31.964144 358.18591
3.2136536 31.953871 356.75821
4.1917572 31.956324 354.5748
4.5925293 32.220051 354.05338
0.75732422 31.411379 358.36035
3.2122498 31.403296 356.71716
1.2464294 30.859144 357.98889
3.2109222 30.85253 356.67612
4.9368591 30.846914 355.15918
2.7097168 30.303312 356.19562
4.6869354 30.296341 354.897
1.4932556 29.757408 358.12262
2.7083893 29.751453 356.15445
4.4402008 29.74584 355.40088
1.5395508 29.076784 358.17798
2.6057281 29.133825 356.05252
3.7010498 29.198088 356.22873
4.7354736 29.063684 355.67975
1.5749054 28.392921 357.46921
2.706604 28.647289 356.07272
3.6997375 28.646925 356.18762
4.7811737 28.382151 355.73706
2.7053375 28.095133 356.03146
3.6991119 28.095718 356.14716
1.8216248 27.292475 357.60315
2.7513733 27.412716 356.08841
3.494812 27.412594 355.98334
1.8612213 25.726547 355.95776
2.7476654 25.755945 355.9646
3.6394501 25.694313 356.01898
2.0485229 25.072258 356.12686
2.7929077 25.074175 356.02097
3.7866058 25.08005 356.13708
1.7952728 24.514984 355.86475
2.7917023 24.521816 355.97964
3.7853394 24.52869 356.09589
2.5395508 23.964422 355.71793
3.5351105 23.972334 355.83508
2.2865906 23.40597 355.45544
3.5338898 23.420279 355.79382
2.5371399 22.85832 355.63516
3.5794373 22.74003 355.85141
2.7793579 21.74262 355.00769
3.2168427 21.098545 355.39969
3.3720093 20.396019 355.56567
4.1164246 20.401888 355.46426
2.8217621 19.399374 354.94186
3.6146698 19.279085 354.94052
3.8638611 18.735535 355.12048
3.8633575 18.18264 355.07983
3.3613739 17.607985 354.59576
3.3602295 17.054037 354.55432
3.3597717 16.499844 354.51355
3.3586426 15.945598 354.47202
3.1070557 15.378451 354.20911
3.1059265 14.823606 354.16754
3.8556061 14.83458 354.07111
2.6007843 14.240726 353.68042
2.5996857 13.684686 353.63876
3.3515778 13.69671 353.54303
2.7138672 13.050249 353.73926
3.6481018 13.031154 353.82584
2.3455048 12.556785 353.33264
3.6923218 12.35164 353.88483
2.0907898 11.983909 353.06677
2.3899994 11.318645 353.3512
3.5772095 11.319123 353.66141
3.4385071 10.669609 353.53851
3.4381256 10.114022 353.49759
2.133194 9.6300974 353.00177
3.4377136 9.5583382 353.45663
2.4323273 8.9677143 353.2865
3.4373322 9.0026598 353.41574
2.4319916 8.4108648 353.24542
3.4369812 8.446867 353.37479
2.1771851 7.834116 352.97952
3.1840668 7.8712578 353.1098
2.1769104 7.2766075 352.93839
3.1837311 7.3148117 353.06882
2.1758728 6.7190847 352.89651
3.3884277 6.6240273 353.28369
3.5250244 5.9788618 353.41351
2.175293 5.6037369 352.8143
2.2195892 4.9241695 352.8746
3.2722321 4.8448706 353.10837
2.5177612 4.2679968 353.15921
3.7760162 4.33463 353.51395
2.2635498 3.6874702 352.89383
3.7216797 3.6907732 353.46683
2.5843506 2.9728358 353.23041
4.1187134 2.5039485 354.57468
4.6172638 2.5014005 354.26172
-449.88513 17.582811 106.19663
1.5776215 1.5042241 363.91583
6.1151276 132.23912 374.4213
6.1687775 132.26971 373.8356
5.5810852 131.79358 374.45395
6.4727631 131.64993 373.77933
6.26091 131.79462 372.63989
6.3072052 130.8837 373.80557
6.3638458 130.91324 373.22021
6.3296204 131.10114 372.62497
6.2974396 131.289 372.02963
5.9609375 130.4332 373.81296
6.3427582 130.37909 373.19559
6.399353 130.4086 372.61038
6.367157 130.59547 372.01495
6.3216248 129.84497 373.17111
6.3792725 129.87344 372.58569
6.4378357 129.90193 372.00037
6.558075 129.95877 370.83014
5.6491852 129.47614 373.2092
5.8285828 129.29343 372.63721
6.150177 129.47896 371.42032
6.3369904 128.8042 372.53632
5.8028564 129.02553 371.42538
6.427002 129.04689 370.77002
5.7230988 128.46193 371.98685
5.7826996 128.48943 371.40048
5.843277 128.51688 370.81433
3.2140198 128.821 372.15494
5.1071625 128.11775 371.43567
5.5887756 127.90401 370.83032
5.414978 127.85375 370.28409
3.4865723 128.06926 371.5444
4.1590118 127.85354 370.91229
3.0866241 127.5322 371.56772
3.8085785 127.39622 370.91718
3.8701477 127.42374 370.32761
4.2628784 127.36845 369.70953
3.7883606 126.85705 370.89218
3.8499298 126.88363 370.30264
3.9124451 126.91016 369.7131
4.3072357 126.85578 369.09579
4.5594482 126.56214 368.53195
2.8574677 126.77097 371.49451
3.1046906 126.47858 370.92706
3.8296967 126.34448 370.27765
3.8922119 126.37103 369.68811
3.9557648 126.39654 369.09875
0.92980957 126.67027 375.72583
2.765274 125.96617 370.35907
3.2085114 125.99165 369.7207
3.6042786 125.93727 369.10196
4.0675964 125.90831 367.8952
0.907547 126.12917 375.70071
1.6265106 125.99763 375.03906
3.1882629 125.45051 369.69553
3.6789246 125.23756 369.08939
3.6685944 125.36834 367.91501
0.50045776 125.63679 376.30496
0.88525391 125.58707 375.67566
1.7516632 125.32691 374.43179
3.7524872 124.53689 369.07703
0.65150452 124.96317 376.27518
0.95684814 124.88649 375.66129
1.4364777 124.67719 375.04416
1.8222656 124.62734 374.41745
4.3948364 123.83997 368.99521
-0.21546936 124.71204 376.32504
1.0284424 124.18589 375.647
1.4141998 124.13609 375.0191
1.8010101 124.08624 374.39236
1.8555756 124.11406 373.79965
3.2223969 123.66852 369.63269
4.374588 123.29983 368.97006
1.0061798 123.6448 375.62195
1.3919525 123.59499 374.99402
1.7797394 123.5451 374.36731
3.6282654 122.89094 369.59146
4.3553925 122.76067 368.94485
5.0814972 122.63034 368.30106
0.59906006 123.15143 376.22614
0.98390198 123.1027 375.59683
1.370697 123.05389 374.96884
1.6301727 122.97886 373.20078
3.2767334 122.42766 369.59528
4.2886353 122.14075 368.93802
5.1561584 121.93362 368.28903
-0.52276611 123.00095 376.29587
0.62736511 122.63831 375.60638
1.3484039 122.5118 374.94376
2.7498627 122.09509 369.60013
4.571167 121.38862 368.33267
-0.064437866 122.25065 375.65079
1.0877838 121.88888 374.96399
1.1423035 121.91674 374.37018
1.1968231 121.9446 373.77634
1.5876312 121.89462 373.15021
2.9038849 121.42125 369.57394
3.3017426 121.3699 368.95438
4.2216034 120.92434 368.33545
4.2891235 120.94875 367.7467
0.73120117 121.42351 374.97302
1.548172 121.14037 374.32318
1.9369812 121.09144 373.69708
1.9945068 121.11819 373.10449
3.3763275 120.67015 368.94278
4.2023773 120.38419 368.3103
4.930542 120.2578 367.66696
-0.39181519 121.26818 375.03885
1.8592072 120.52354 374.26447
1.9157715 120.55032 373.67188
2.6964264 120.45225 372.42334
3.8507843 119.91895 368.31314
4.5809479 119.79254 367.66888
0.782547 120.18075 374.93448
1.8379822 119.98244 374.23923
2.1417694 119.71983 373.07895
2.5762482 119.89529 368.93561
3.8999786 119.4012 367.69849
0.76121521 119.63764 374.90924
1.8167114 119.44132 374.21399
2.0487366 119.5453 371.84378
1.8872681 119.50301 368.96774
2.7173309 119.21906 368.33295
4.2111206 118.78615 367.64572
1.073288 119.02083 374.84973
1.2236481 118.8901 374.26843
1.9468536 118.76842 373.60849
2.0992584 118.6376 373.02859
2.1577759 118.66232 372.43634
2.3132935 118.84859 371.80618
1.1303558 119.21458 368.99081
1.9334259 118.98245 368.3497
3.1957245 118.46678 367.70294
1.3537598 118.21623 373.66202
2.0779877 118.09549 373.0033
2.1374817 118.1212 372.41104
2.1969757 118.1459 371.81879
1.5112915 118.48971 368.94577
1.9141235 118.43931 368.32422
1.9815674 118.46186 367.73163
0.74987793 118.03622 374.23886
1.7233582 117.62714 373.01065
2.1162262 117.57909 372.38574
1.1545868 118.01853 368.94934
1.9906464 117.7365 368.31317
2.2500916 117.76293 367.69742
2.8932343 117.47688 367.08881
0.36459351 118.4983 364.30142
0.39421082 117.56587 374.24731
0.80149841 117.33343 373.64725
1.7020569 117.08503 372.98532
2.0949707 117.03799 372.36035
2.2179108 117.0863 371.17587
0.79888916 117.54734 368.95279
0.68457031 117.87598 364.25095
-0.91703796 117.33883 373.76053
1.0130768 116.68645 373.02539
1.4068909 116.63943 372.39908
1.467392 116.66415 371.80566
1.8632507 116.61604 371.18146
1.1159363 116.92924 368.89807
0.77012634 117.17545 364.82196
-0.26568604 116.64812 373.66809
1.0512238 116.16813 372.40591
1.4470825 116.12104 371.78021
1.6073761 116.18242 368.84366
1.5842743 116.17072 367.68634
1.03508 116.34503 365.39453
1.4459381 116.29438 364.7753
0.14628601 115.8746 373.62234
0.63604736 115.67103 373.00739
0.69552612 115.69582 372.41272
0.75598145 115.7206 371.81815
0.40142822 115.98194 368.90503
1.3374481 115.54519 368.28293
2.0767365 115.42478 367.63351
1.3531799 115.7268 365.3429
-0.11454773 115.24365 373.64371
0.61471558 115.12692 372.98187
0.67420959 115.15172 372.38727
0.73464966 115.17548 371.79263
0.381073 115.43581 368.87936
0.98069763 115.07101 368.2861
2.0564117 114.88067 367.60791
1.3347626 115.17963 365.31717
0.25799561 114.65361 372.98938
0.65284729 114.60762 372.36163
0.71432495 114.63136 371.76706
0.96133423 114.52588 368.26044
1.7026367 114.40648 367.61017
0.90457153 114.68311 365.91147
1.3153992 114.6335 365.29138
-1.026825 114.60838 373.63272
-0.099761963 114.17831 372.99692
1.4942169 113.61057 372.2995
1.3638611 113.94758 371.67807
1.0093842 114.00134 367.64075
0.88619995 114.13595 365.88562
1.2960358 114.08735 365.26572
4.325119 113.2226 362.19089
-0.79595947 113.77285 373.03757
1.4739227 113.06747 372.27396
2.2023163 112.95357 371.61737
0.99005127 113.45621 367.61496
0.52833557 113.6599 365.88654
3.9908295 112.57163 362.79404
4.4047394 112.52164 362.18231
-0.81733704 113.22575 373.01196
0.78375244 112.66093 372.31335
2.181015 112.41146 371.59192
0.633255 112.97909 367.61743
0.50894165 113.11177 365.86069
4.2266388 111.94123 363.33313
4.3060608 111.96038 362.74481
4.7199707 111.91037 362.13376
1.0978851 112.04903 372.25528
2.1597443 111.86938 371.56631
0.61386108 112.43195 367.59161
0.82702637 112.49555 365.80832
4.5649872 111.12066 362.16635
1.0765686 111.50492 372.22968
1.5703888 111.30413 371.61862
2.3482971 111.11581 370.97064
0.93099976 111.8178 367.53769
0.80865479 111.94842 365.78244
4.1116791 110.83675 363.87039
4.5477142 110.57748 362.14072
0.38525391 111.09541 372.2691
2.0429535 110.56116 370.98364
0.91162109 111.27068 367.51184
3.9372864 110.23371 363.87268
4.2706909 110.15491 363.27362
4.351059 110.17303 362.68533
4.5293732 110.03432 362.11511
0.028457642 110.61612 372.27594
0.42636108 110.57307 371.64832
-1.9551544 111.39711 365.94556
-1.1224213 111.30101 364.69617
3.9383698 109.50282 363.87863
4.3503418 109.45594 363.26547
4.4307251 109.47405 362.6774
0.58248901 109.90119 371.62201
1.1579132 109.73231 370.99551
0.73219299 109.93085 367.52097
0.70465088 110.10819 366.91
-0.45884705 110.61452 364.61844
3.5875092 109.0247 363.8779
4.4124298 108.93089 362.6517
-0.62684631 109.67941 371.69333
0.97950745 109.12727 371.00101
1.3794098 109.08307 370.37601
-0.47727966 110.06537 364.59241
4.0615234 108.4518 362.64969
4.4764862 108.4048 362.03799
4.2116394 108.65986 360.86633
-0.98570251 109.19817 371.69983
0.090209961 109.02332 371.00745
1.0236053 108.60381 370.3812
-1.4470062 109.73439 364.04593
3.6302795 107.95454 363.23706
4.04422 107.90862 362.62399
4.4591827 107.86061 362.01221
4.6259308 107.89468 360.83685
-0.15357971 108.39557 371.60904
0.42483521 108.22666 370.98129
1.0032654 108.05869 370.35544
1.0695801 108.07932 369.76151
0.068344116 108.44006 366.90482
-1.4409027 109.00478 364.63577
-0.82791138 108.96693 363.98962
3.2773285 107.47449 363.23578
4.0258942 107.36448 362.59821
4.5398254 107.16159 362.005
4.6231995 107.17863 361.41739
4.6085663 107.35052 360.811
0.18200684 107.59888 371.58243
0.91749573 107.49193 370.92374
0.98291016 107.51357 370.32971
1.0492859 107.53419 369.73566
-1.3584595 108.29472 364.62784
-0.25741577 108.11869 363.95377
3.792511 106.55447 363.22247
4.2064972 106.50854 362.60959
4.6214905 106.46253 361.99792
4.4555511 106.55768 360.84543
-0.27487183 107.27139 371.57321
0.56057739 107.01067 370.92963
0.96257019 106.96845 370.30389
1.3644714 106.92519 369.67941
-1.0363617 107.67942 364.57571
-0.27586365 107.56854 363.92764
5.1840973 105.77823 362.5123
4.7718658 105.95138 360.79736
-0.6008606 106.73623 371.58493
0.54022217 106.46456 370.90378
-1.0548553 107.12828 364.54956
4.7528229 105.28106 363.09769
5.1658173 105.23607 362.48657
4.4209442 105.46934 360.79382
-0.55523682 106.08527 371.56967
0.18226624 105.98132 370.90958
1.658432 105.77312 369.59732
-0.61610413 106.39324 366.26028
-0.73269653 106.51299 364.49731
4.3225403 104.7828 363.68442
5.0662079 104.67686 363.04767
5.1485443 104.6929 362.46075
5.562561 104.64884 361.85107
-0.074676514 105.34225 370.93182
0.51832581 105.3111 370.27853
1.066864 105.19695 369.6485
1.1352386 105.21753 369.05463
-0.19599915 105.62417 366.22449
-0.75114441 105.96285 364.47107
4.3042297 104.23965 363.65863
5.0489197 104.13469 363.02179
5.2292328 103.99585 362.45395
5.5442963 104.1067 361.82523
-1.2098236 105.13558 370.98526
0.80886841 104.55793 369.66989
1.2138367 104.51662 369.04544
-0.58901978 105.19008 366.22006
4.2859344 103.6965 363.63287
0.38551331 104.05306 370.2695
0.45289612 104.0727 369.67459
0.52125549 104.09231 369.07977
-0.60945129 104.63998 366.19391
4.2676086 103.15236 363.60696
4.6806641 103.10941 362.99445
5.0956726 103.06541 362.38321
-4.0090485 104.91551 371.71121
-2.815979 104.59478 371.02869
-0.50901794 103.93737 370.27274
0.43249512 103.52659 369.64862
0.8374939 103.48528 369.02368
-0.93453979 104.09895 366.2016
0.26065063 103.77832 365.54153
4.0941925 102.54627 363.6105
4.7623444 102.41235 362.98767
4.6962891 102.34753 361.85617
5.2460785 102.55419 361.18408
-3.5850067 104.14462 371.66849
-2.3938904 103.82687 370.98688
0.34477234 102.95984 370.21762
0.7477417 102.91959 369.59192
-0.51339722 103.33284 366.16608
0.57989502 103.16913 365.4884
4.6779938 101.80437 361.83032
4.7633057 101.81934 361.24301
-3.2638702 103.5326 371.60928
-1.9737854 103.06102 370.94531
0.75906372 102.20107 370.17749
1.4977264 102.10193 369.52191
-3.0035858 103.401 368.07101
-0.53285217 102.78272 366.13995
0.5605011 102.621 365.46216
4.2136688 101.52188 363.52921
-3.6913147 103.01949 372.21744
-3.2863922 102.98055 371.58301
-0.43765259 101.96468 370.82462
0.73872375 101.65495 370.15143
1.5763702 101.403 369.51309
-1.232605 102.35174 366.16931
3.7112579 100.95596 362.98355
4.4590607 100.85594 362.34644
4.6423798 100.71704 361.7785
5.059433 100.67493 361.16837
-3.1039124 102.11871 371.59082
-2.3572845 102.01978 370.92526
0.71731567 101.10886 370.12549
1.2213898 100.91573 369.51782
1.9600525 100.81853 368.86401
-0.57070923 101.68246 366.08719
0.52165222 101.52377 365.40973
4.1256714 100.19984 362.95255
4.5407257 100.15787 362.34015
4.6250763 100.17287 361.75253
4.7103882 100.18784 361.16519
-3.125412 101.56663 371.56451
-2.0380859 101.41077 370.86679
0.10314941 100.70947 370.14597
1.2009735 100.36962 369.49179
2.0576172 100.32192 368.81442
0.67349243 100.73229 365.99384
4.4391174 99.599678 362.90192
4.523407 99.6147 362.31418
4.6077576 99.629707 361.72659
4.6930542 99.643677 361.13919
4.7793884 99.658623 360.55206
-2.7408752 100.97653 370.90512
0.44087219 99.91864 370.12213
0.84492493 99.880394 369.49655
1.5856781 99.785172 368.8421
1.9917908 99.746758 368.21964
0.94621277 100.04322 365.96158
4.4217682 99.05571 362.87592
4.5050964 99.070648 362.28815
4.5894318 99.08535 361.70056
4.675766 99.0998 361.11316
5.0948181 99.058044 360.50369
-2.7623138 100.42545 370.87878
0.48884583 99.391144 369.50143
1.3316345 99.142838 368.86429
1.7376862 99.104347 368.24124
0.92683411 99.495102 365.93539
4.4035034 98.511864 362.84991
4.4868164 98.526695 362.26205
4.5720978 98.541183 361.6745
4.6584167 98.55555 361.08707
4.744751 98.569801 360.49988
-3.4682159 99.988243 370.91733
-2.3758087 99.836266 370.22049
0.46847534 98.843636 369.47534
0.90744019 98.947388 365.90909
4.0523682 98.022949 362.84851
4.4694672 97.982651 362.23599
4.6548004 97.843971 361.66891
4.6401367 98.011299 361.06094
4.7274323 98.025337 360.47375
-3.3866882 99.281219 370.90897
-2.9786682 99.244164 370.27588
-2.4657135 99.05127 369.66229
0.85417175 98.258835 368.82401
0.62756348 98.471596 365.3161
3.5376434 97.503098 364.02551
4.0340576 97.478516 362.82239
-2.5554962 98.481323 370.2355
-2.1464386 98.443863 369.60446
0.49801636 97.7668 368.82813
0.86152649 97.645432 368.22607
1.226059 97.523911 367.62509
1.5905457 97.402351 367.02509
0.89201355 97.76667 365.28922
3.8510895 96.904388 363.97357
4.2662201 96.86528 363.35959
4.3495178 96.879807 362.77161
-1.1308136 97.460869 370.70642
-1.9160156 97.789558 368.98135
-1.3448181 97.817612 368.31985
0.82530212 96.947449 367.65057
1.5711517 96.855736 366.9989
1.1285248 97.012405 365.27557
4.010376 96.240677 363.95227
4.3479309 96.168976 363.35373
4.8621063 95.977951 362.76147
5.278244 95.938911 362.15039
4.5008087 96.363976 361.56985
4.5436401 96.139259 360.45996
-0.76303101 96.781181 370.65677
0.77233887 96.518219 365.27649
4.3463593 95.458626 363.93576
4.429657 95.472969 363.3479
4.8437958 95.434517 362.73541
5.2599335 95.395866 362.1243
-1.1221619 96.28595 370.66269
-0.71609497 96.250069 370.03366
-1.4491882 96.480331 367.73712
0.49960327 96.107994 366.99759
-1.3016205 96.513634 366.54184
0.33784485 96.007195 365.87216
1.0897522 95.916153 365.22296
4.4113617 94.929024 363.32178
4.82547 94.891068 362.70935
4.9971008 94.918381 361.53549
-0.73651123 95.701088 370.00732
0.44619751 95.407249 369.33612
-0.79008484 95.822258 367.65128
0.31842041 95.458092 365.84576
0.73352051 95.420662 365.22369
3.8002625 94.541077 363.90448
4.3930359 94.385086 363.29559
4.8081818 94.347412 362.68317
4.9797821 94.374413 361.50931
-1.0967255 95.204796 370.01288
0.29800415 94.908875 365.81937
1.1311951 94.834549 364.5766
3.9595337 93.878166 363.8833
4.3747101 93.841049 363.26935
4.4590302 93.854744 362.68164
4.5443115 93.868225 362.09406
4.6305695 93.881592 361.50668
-0.78991699 94.468262 369.39966
0.57774353 94.176765 368.70764
0.27854919 94.359467 365.79288
1.112793 94.285927 364.55002
3.2755127 93.435059 363.90918
4.0235138 93.347504 363.26859
4.4406891 93.310425 362.65543
4.5259552 93.323914 362.06778
4.6122742 93.337059 361.48041
4.700531 93.35006 360.89322
0.22050476 93.680283 368.71185
0.33738708 93.825264 365.17163
1.093399 93.737206 364.52353
3.6723175 92.853058 363.26782
4.4223785 92.766083 362.62912
4.6822357 92.805328 360.86688
-0.13774109 93.182686 368.71619
0.61024475 93.097183 368.06039
-0.77783203 93.413841 365.82416
0.75785828 93.072296 365.13843
1.1759949 93.036171 364.51767
3.3210754 92.357422 363.26694
3.7392426 92.32106 362.65247
-0.80989075 92.786606 370.49057
-0.49597168 92.684006 368.72043
-0.083877563 92.649521 368.09399
-0.79829407 92.862755 365.79761
-0.37918091 92.826935 365.1734
3.3027039 91.811493 363.2406
3.8725281 91.548775 362.65857
4.5730591 91.539139 362.01035
4.7604218 91.400864 361.44482
5.1796417 91.364418 360.83469
-0.72929382 92.08609 370.48297
-0.32116699 92.05265 369.85452
-0.44313049 92.150162 368.09775
-0.030014038 92.115829 367.47202
-0.39863586 92.276031 365.14682
4.5685425 90.831154 362.59296
4.6548309 90.843803 362.00565
4.7430725 90.856316 361.41852
5.1623077 90.820259 360.80844
-0.48214722 91.471443 371.02002
-0.41287231 91.487778 370.42401
-0.34259033 91.503868 369.82806
-0.38929749 91.615799 367.47513
0.025863647 91.581581 366.85019
0.023803711 91.52343 365.11371
0.88291931 91.287163 364.48581
4.5511932 90.286697 362.56665
4.6374817 90.29924 361.97931
4.724762 90.311668 361.39218
4.8130341 90.323868 360.8053
-1.2465363 91.003799 371.65695
-0.50254822 90.922859 370.99347
-0.43325806 90.93898 370.39743
-0.36300659 90.954895 369.80151
-0.29171753 90.97068 369.2056
-1.0875244 91.163719 367.50809
0.0054016113 91.031921 366.82352
0.10641479 90.821198 365.10815
0.8634491 90.737846 364.45923
4.5328827 89.742149 362.54031
4.6191406 89.754608 361.95297
4.7073975 89.766907 361.36584
4.7956848 89.779007 360.77893
-1.2679901 90.454224 371.63034
-0.52398682 90.374084 370.96692
-0.45469666 90.390114 370.37076
-0.31214905 90.421509 369.17889
-1.1079712 90.612648 367.48132
-0.35293579 90.530586 366.82596
1.1819458 90.140289 364.40567
1.9370575 90.057869 363.76016
4.6007843 89.209969 361.92661
4.6891022 89.222069 361.33942
4.8686066 89.245804 360.16586
-1.1873779 89.753998 371.6232
-0.4433136 89.675056 370.95966
-0.37405396 89.690781 370.36368
-0.20068359 89.555878 369.78763
-0.23150635 89.721642 369.17215
-1.0254059 89.909927 367.47534
-0.60923767 89.876755 366.84906
-0.19306946 89.843513 366.22427
-0.27139282 89.76812 365.08252
0.48667908 89.686478 364.43286
1.2447662 89.604752 363.78586
4.2505035 88.711563 361.92462
4.6717377 88.677132 361.31302
4.5183105 88.747147 360.16217
-0.4319458 88.960693 371.5484
-0.29336548 88.991737 370.35666
-0.22210693 89.007027 369.76096
-0.14982605 89.022079 369.16547
-0.94177246 89.207581 367.46945
-0.52662659 89.174835 366.8432
-0.11044312 89.141998 366.21851
0.30673218 89.108887 365.59503
0.12928772 89.183609 364.43323
1.5632782 89.008377 363.73297
0.15016174 88.30439 372.04956
0.21846008 88.320023 371.45468
-0.17127991 88.473 369.13882
-0.54708862 88.624153 366.81653
-0.13090515 88.591614 366.19177
0.28729248 88.558899 365.5683
0.29154968 88.516541 364.41196
0.89343262 88.366997 363.79684
3.7945709 87.65403 362.48459
4.5467834 87.575157 361.84717
4.6360321 87.586952 361.26004
-0.71142578 87.98156 372.6683
-0.20710754 87.802467 372.05707
0.19604492 87.772377 371.42807
0.26631165 87.787529 370.83322
0.33662415 87.802597 370.23853
-1.0867615 88.256195 367.39502
-0.56752014 88.073364 366.78979
-0.15032959 88.041214 366.16504
1.3916626 87.655602 363.7496
4.5423279 86.869034 362.43039
5.038208 86.870979 361.8031
-0.29681396 87.238884 372.62613
0.10638428 87.209297 371.99634
0.17469788 87.224617 371.40146
0.98608398 87.164558 370.14725
-0.66424561 87.508392 367.3591
-0.58700562 87.522369 366.76294
-0.50978088 87.536224 366.16696
-0.091583252 87.504219 365.54291
1.7101898 87.061134 363.69635
3.6716003 86.550056 363.02014
4.6250916 86.175049 362.42624
5.0443573 86.14257 361.81473
-0.3182373 86.690819 372.5994
0.18708801 86.512955 371.98929
0.25537109 86.527962 371.3945
0.76168823 86.3498 370.78671
0.57028198 86.422897 369.63104
-1.0682526 86.917305 367.38672
-0.50436401 86.821014 366.75769
-0.52923584 86.985023 366.14008
-0.11105347 86.953423 365.51605
1.3538208 86.557068 363.69608
4.6067505 85.630226 362.39981
4.6949921 85.641624 361.81271
5.4463043 85.565788 361.17801
-0.068161011 85.86055 372.01651
0.33607483 85.831627 371.38766
0.74032593 85.802544 370.76007
0.54985046 85.874809 369.60443
0.62313843 85.888893 369.01016
-0.49797058 86.106377 367.34836
-0.46946716 86.447136 365.5173
0.99838257 86.051872 363.69568
4.2573853 85.128357 362.39847
4.6766815 85.096596 361.78616
5.0969391 85.064659 361.17542
-0.090545654 85.312508 371.9899
0.31369019 85.283882 371.36096
0.71891785 85.25518 370.73337
0.60267639 85.340508 368.9834
-0.51843262 85.55571 367.3215
0.31399536 85.494743 366.07211
0.64091492 85.545639 363.69543
1.5042877 85.320412 363.07251
3.9069977 84.62542 362.397
4.3273163 84.594048 361.78424
5.0796356 84.519913 361.14883
-0.11193848 84.764343 371.96313
0.29225159 84.736107 371.33423
0.36358643 84.750366 370.73969
0.58131409 84.792152 368.95667
-0.53890991 85.004822 367.29477
-0.56478882 85.167854 366.67712
-0.044448853 84.98793 366.07416
0.271698 85.107063 365.42892
0.45597839 84.9702 364.85654
0.6224823 84.994934 363.66852
1.9249878 84.578438 363.04248
3.8886566 84.079376 362.37042
4.3089142 84.048325 361.7576
4.7302094 84.017105 361.14615
0.2016449 84.173782 371.90219
0.27090454 84.188156 371.3075
0.67614746 84.160065 370.67993
1.0834045 84.131775 370.05359
0.89588928 84.201347 368.8985
-0.48216248 84.46701 366.672
-0.063919067 84.437225 366.0473
0.35432434 84.407112 365.42392
0.77357483 84.377014 364.80197
2.9116974 83.902748 362.93808
3.8702698 83.533165 362.34378
4.2905731 83.50251 361.73099
4.7128906 83.471657 361.11948
4.6068878 83.619392 359.94608
0.17921448 83.625946 371.87537
0.68560791 83.450897 371.26755
1.0919037 83.423141 370.64063
1.1641388 83.436813 370.04739
1.237381 83.450249 369.45435
1.3126221 83.463539 368.86136
-0.50163269 83.915817 366.64505
0.097396851 83.772903 366.02554
0.33486938 83.856728 365.397
0.41609192 83.869133 364.80264
1.0322723 83.677917 363.03436
3.8508759 82.986862 362.31708
4.2722321 82.956573 361.70428
4.6945038 82.926033 361.09277
4.8779755 82.946854 359.91968
-0.17817688 83.119118 371.88281
0.43238831 82.796822 371.29492
1.1716614 82.728798 370.63437
1.2448883 82.742126 370.04129
1.3181305 82.755363 369.44843
1.3934021 82.768349 368.85562
1.7043762 82.818916 366.48584
1.867691 82.931221 362.96204
4.3560181 82.262733 361.70099
4.7783051 82.232582 361.08969
4.629715 82.293457 359.94
0.81622314 82.222061 370.64081
1.2234955 82.194862 370.01456
1.29776 82.207985 369.4216
1.3730011 82.220863 368.82883
1.4492188 82.23362 368.23611
2.0393066 82.094162 367.61771
2.4771118 81.883049 367.03561
2.6861115 82.149513 366.37167
1.512207 82.42276 362.96112
2.3746948 82.203918 362.34164
4.0035248 81.757156 361.6991
4.3823853 81.639114 359.9606
0.054504395 81.740822 371.2753
0.7947998 81.674301 370.61398
1.2021332 81.647621 369.98767
1.2763367 81.660522 369.39481
1.351593 81.673325 368.80191
1.4278564 81.685875 368.20929
2.377533 81.324432 367.59979
2.4567413 81.336357 367.00882
2.9987946 81.563095 366.3158
1.2201691 81.998535 364.09616
2.7945099 81.466637 362.3129
3.2178497 81.43737 361.69806
4.3640442 81.092392 359.9339
0.36714172 81.152771 371.21454
0.77340698 81.126556 370.58707
1.1807098 81.100159 369.96088
1.2559509 81.112953 369.36783
1.3311768 81.125549 368.77505
1.4074402 81.138016 368.18231
2.4363403 80.789688 366.98206
2.5165863 80.801384 366.3913
1.3028412 81.300438 364.09192
1.4743195 81.322845 362.90717
3.5187988 80.998154 357.57327
0.081939697 80.656479 370.62659
1.1603088 80.552582 369.93393
1.3367004 80.418556 369.36249
1.4129791 80.430901 368.76987
1.4901886 80.443146 368.17734
1.8238525 80.380478 367.57196
2.4159698 80.242813 366.95523
2.4972229 80.254402 366.36435
2.5784454 80.265877 365.77377
2.6616974 80.277107 365.18329
1.7503815 80.487038 362.33585
4.9002686 79.912331 360.42014
3.8504333 80.09481 358.75104
3.9466248 80.10405 358.16345
0.39654541 80.068977 370.56635
0.46980286 80.081757 369.97217
1.4184723 79.724442 369.35724
1.4947357 79.73658 368.7648
1.5719452 79.74852 368.17236
1.9832458 79.722305 367.54977
2.3965759 79.695808 366.92834
2.4768219 79.707329 366.33755
2.5590668 79.718597 365.74686
1.7319031 79.937103 362.30884
4.0352173 79.422676 361.61581
0.6546936 79.239845 369.98859
1.0630035 79.214546 369.36252
2.1395111 79.113892 368.6748
1.9628754 79.174835 367.52283
2.3762054 79.148743 366.90143
2.4574432 79.160133 366.31055
2.5386658 79.171303 365.71994
2.048584 79.349068 362.25626
4.1070251 78.885651 361.00134
4.1992645 78.895279 360.41385
3.4804382 79.036079 358.71964
4.5790863 78.932083 358.06653
-0.60035706 78.995033 372.9613
-0.63432312 79.154411 372.34467
1.3756866 78.629318 369.30347
2.1191254 78.567024 368.64783
2.1973877 78.57869 368.05655
2.2755737 78.59024 367.46539
2.3558197 78.601547 366.87439
2.4370422 78.612747 366.28363
2.5192719 78.623825 365.6929
1.5186005 78.816132 363.43851
2.0301971 78.799355 362.22913
3.7555084 78.375664 360.99881
4.1819 78.348137 360.38696
3.463028 78.487137 358.69269
4.5617218 78.38456 358.03964
-0.95889282 78.482689 372.96997
-0.21852112 78.421753 372.30353
0.18681335 78.397629 371.67395
1.3542938 78.081566 369.27655
2.0987396 78.020149 368.62082
2.5091095 77.995239 367.99878
2.1657257 78.112915 365.69458
1.499176 78.266136 363.41147
2.0107422 78.249557 362.20212
2.7722626 78.185654 361.5611
4.0712585 77.791588 360.94745
4.1634827 77.800934 360.36002
4.7812958 77.791595 358.57703
-0.64523315 77.896286 372.90714
0.094161987 77.836342 372.24149
0.16542053 77.848991 371.64682
1.332901 77.533714 369.24951
2.1805573 77.327721 368.61612
2.5899048 77.303215 367.9942
3.1035004 77.133171 367.39584
2.6026459 77.226189 366.27551
1.8111877 77.601021 365.69632
2.1017761 77.319 365.15192
1.4797211 77.71595 363.38434
1.6561127 77.736206 362.20059
2.7793121 77.453033 361.57504
3.7197266 77.280411 360.94485
4.6731262 77.426155 353.33771
-0.083618164 77.105156 372.86081
0.27812195 76.997009 372.25681
1.0166016 76.938309 371.59372
1.0887909 76.950356 371.00067
2.2613831 76.635574 368.61151
2.6717529 76.611481 367.98959
3.0830994 76.587204 367.36887
2.5822601 76.678917 366.2485
1.4602814 77.165756 363.35712
2.9417572 76.794365 361.55609
4.6186981 76.439743 358.59637
4.9469147 76.559189 357.96289
3.8800507 76.940964 353.9317
5.5345306 76.510124 353.33087
0.18548584 76.436455 372.82407
0.58883667 76.413765 372.19473
0.99417114 76.390762 371.56671
1.0673981 76.402618 370.97357
0.95692444 76.472664 369.22739
2.6513824 76.064903 367.96252
3.0627594 76.041039 367.34186
2.5618591 76.131531 366.2215
3.3946381 76.082497 364.98456
1.1036224 76.650887 363.35675
4.6013336 75.892296 358.56943
5.0317383 75.865944 357.96161
3.8275299 76.28466 354.50967
4.3040161 76.207558 353.91415
5.8523407 75.926872 353.28671
0.26628113 75.743347 372.81854
0.67063904 75.72094 372.1893
1.0750122 75.698479 371.56128
1.5016937 75.682838 368.60953
2.2988281 75.552513 367.9664
3.0423584 75.494759 367.31482
2.874649 75.549721 366.16507
2.8631897 75.678436 364.97937
1.8071136 75.791298 362.16867
2.9038696 75.696571 361.50186
2.0716858 75.974991 359.77948
4.4877167 75.336456 359.12881
4.5839081 75.344765 358.54245
3.8451691 75.685226 354.49173
5.0622253 75.44088 353.87881
5.8359833 75.379105 353.25974
0.75143433 75.028534 372.1839
1.1558228 75.006485 371.556
1.1987 75.095886 368.62549
1.945282 75.039017 367.97049
2.3576508 75.01577 367.34848
2.8542633 75.00264 366.13797
3.2706451 74.978897 365.51941
1.7886658 75.240799 362.14151
2.8854828 75.147568 361.4747
4.4693451 74.788933 359.10178
5.5622559 74.696175 358.44891
2.9477997 75.342979 355.06244
4.606369 74.918839 354.45502
5.0457764 74.892021 353.85184
5.7789459 74.744614 353.25714
1.6675262 74.691856 370.82462
1.256485 74.557838 368.00571
2.0040436 74.501595 367.35193
2.5226746 74.333916 366.75427
3.2693024 74.277733 366.1051
3.455719 74.143059 365.53976
3.8721313 74.119728 364.92276
1.7691803 74.690315 362.11426
2.5318146 74.632103 361.47256
3.3738098 74.610207 355.04367
4.5899506 74.369484 354.42798
5.030365 74.343048 353.8248
0.16603088 74.253807 372.12085
1.1120453 73.911194 371.50177
1.5609741 73.974701 370.84921
1.2360535 74.008881 367.97845
1.6504517 73.986328 367.35526
2.6044922 73.641945 366.75079
3.35112 73.586838 366.10156
3.4353333 73.596481 365.5127
3.8517609 73.57357 364.89569
3.7977753 73.879059 355.02493
4.5735168 73.820038 354.40091
5.0139618 73.794014 353.79767
-0.96612549 73.947289 372.17703
1.0896149 73.36348 371.47455
1.8282166 73.310265 370.81421
1.6289978 73.437698 367.328
2.9995422 73.072266 366.10397
3.4159546 73.049805 365.48547
3.8323669 73.027283 364.8685
2.4027405 73.523575 362.00815
2.493927 73.532516 361.418
5.1838531 72.936501 359.00107
5.7571869 72.853477 358.3952
3.780304 73.328529 354.99777
4.6612854 73.124252 354.40176
5.1017456 73.098717 353.79865
-0.48103333 73.124062 372.15112
0.73402405 72.847305 371.48184
1.4746246 72.794792 370.82062
1.9481659 72.712822 366.72574
2.9791412 72.525093 366.07678
3.3955536 72.503044 365.45828
3.8130188 72.480789 364.8414
3.6561584 72.530388 363.69269
2.4245911 72.879036 361.42139
5.2687225 72.245148 359.00015
5.6972351 72.221519 358.39294
3.763855 72.777992 354.97058
5.0833893 72.39711 354.38403
6.1894989 72.30896 353.74557
-0.028991699 72.350418 372.11826
0.71159363 72.298805 371.45447
1.4521942 72.24707 370.7933
1.8605957 72.226456 370.16794
2.9587555 71.977722 366.04953
3.3761749 71.956055 365.43109
3.46138 71.965172 364.84238
3.6367798 71.983101 363.66547
2.3292389 72.173698 361.44009
5.2513733 71.698418 358.97302
5.3495789 71.705933 358.38812
5.4487457 71.713318 357.80344
4.0836945 72.195557 354.92413
5.7335815 71.786079 354.31976
0.28277588 71.770157 372.05579
1.0233765 71.719429 371.39255
1.0975952 71.730019 370.79977
1.506012 71.709702 370.17392
2.9383545 71.430367 366.02222
3.3557892 71.409081 365.40387
3.5452728 71.274529 364.83972
3.5292053 71.426971 364.22656
2.6460419 71.592567 361.38736
4.2657013 71.493607 359.52539
4.9017029 71.182053 358.96881
5.3311768 71.159134 358.36099
5.4313507 71.166389 357.77631
4.1952209 71.600166 356.04974
4.3907623 71.411606 354.92938
0.69778442 71.047798 372.01572
1.1052399 71.02816 371.38788
1.1794434 71.038452 370.79529
1.9200745 70.98867 370.13611
2.3375854 70.952065 365.46353
1.758606 71.23996 361.97586
2.6265717 71.042671 361.36014
4.5509796 70.664505 358.96463
4.650177 70.671852 358.3786
4.8495178 70.686264 357.20737
4.9506989 70.693222 356.62216
5.9279175 70.653465 354.82996
6.3654633 70.629929 354.22861
0.77964783 70.356453 372.01108
1.1860809 70.337242 371.38321
1.5924835 70.317993 370.75684
2.0009613 70.298523 370.13156
-0.072219849 70.852058 366.75064
2.3171844 70.403297 365.43616
2.7366486 70.382515 364.81717
3.4893799 70.332146 364.17184
1.8443604 70.544205 361.97427
2.6071472 70.492706 361.33276
4.2002563 70.14595 358.96045
4.6317749 70.123833 358.35135
4.7319336 70.130943 357.76563
4.8321381 70.137939 357.18015
6.014801 69.96151 354.83093
6.2242584 69.823448 354.27649
1.1636505 69.789131 371.3558
1.5711212 69.770248 370.72937
1.979538 69.751114 370.10416
-0.092727661 70.30011 366.72308
1.0002441 70.220505 366.03915
2.3829041 69.863228 364.81827
2.9086761 69.699326 364.22534
1.8248901 69.993126 361.9469
2.923996 69.91317 361.27997
4.181839 69.597359 358.9332
4.6143188 69.575615 358.3241
4.713501 69.582649 357.73837
4.8147278 69.589615 357.15286
6.1016541 69.269943 354.832
6.20784 69.275993 354.24942
6.3160248 69.281998 353.66711
1.1412354 69.240921 371.32834
1.5486603 69.222321 370.70197
1.9581451 69.203682 370.07675
0.66456604 69.546104 366.65927
1.4192963 69.497383 366.00653
1.6949005 69.371414 364.84808
1.8064423 69.442032 361.91934
2.5692291 69.392326 361.2778
3.8310699 69.077118 358.92896
4.5969391 69.02729 358.29681
4.797287 69.041092 357.12558
6.1914215 68.728546 354.22232
0.090408325 68.957253 371.36261
1.1940002 68.702263 370.70862
1.9357147 68.655952 370.04926
0.83912659 68.796066 368.40399
0.74836731 68.851555 366.65634
1.5030975 68.803932 366.00369
1.6744843 68.821274 364.82043
2.0969391 68.801422 364.20102
1.7869415 68.890755 361.89185
2.2154541 68.870255 361.27557
3.3155823 68.792992 360.61133
3.9118195 68.534882 358.31448
4.7798462 68.492569 357.09827
6.0688934 68.17495 354.77771
6.1750183 68.181 354.19516
-0.23869324 68.253998 371.41251
1.1716003 68.153656 370.68103
1.685318 67.993652 370.07898
0.81767273 68.245941 368.37637
0.72689819 68.300621 366.62881
1.66362 68.14949 365.98291
2.6730499 68.03714 365.32205
2.8494415 68.053413 364.14294
1.8727264 68.195686 361.89084
2.301239 68.175697 361.27472
2.9192352 68.184792 360.63449
3.5589905 68.012909 358.30978
3.9935455 67.992226 357.70026
6.1586304 67.633263 354.16797
6.2668152 67.639061 353.58569
0.48258972 67.658867 370.72174
1.4648285 67.641586 368.28476
0.37008667 67.776733 366.63162
2.6707153 67.337822 365.90942
3.0892334 67.319221 365.29068
3.8400879 67.273933 364.64478
2.3870697 67.481323 361.2739
2.8165283 67.461555 360.65921
3.2051849 67.489929 358.30505
3.9760742 67.442513 357.67282
4.4116211 67.422073 357.06488
5.3702698 67.133064 354.76184
6.1422424 67.08551 354.14075
6.9142151 67.037849 353.52246
0.31077576 67.090126 371.88113
0.46011353 67.108978 370.694
1.2048798 67.065155 370.03329
1.6955414 67.056786 368.81674
2.3169708 66.815681 365.91168
3.4011383 66.744942 365.23401
3.5926514 66.611092 364.67126
2.798111 66.911263 360.63165
3.5231018 66.912582 358.25482
4.0629272 66.749374 357.6734
4.4984741 66.729431 357.06555
5.352829 66.584343 354.73462
6.1268158 66.537552 354.11346
0.72494507 66.373154 371.84167
1.2377167 66.215355 371.23755
0.95344543 66.400558 370.06332
1.4692383 66.241989 369.46179
1.8816986 66.224922 368.83755
2.296524 66.266632 365.88409
3.6755219 65.921898 364.6694
4.3231506 66.02005 363.99985
2.3490906 66.379654 361.21881
2.7786255 66.360779 360.6041
3.1692505 66.388313 358.25003
4.9177399 66.011475 357.04471
5.3364105 66.035385 354.70731
6.1104279 65.989594 354.08618
0.47344971 65.708122 371.87314
1.2152405 65.66674 371.21002
1.2914429 65.675583 370.61789
1.3686371 65.684395 370.026
1.4477997 65.693062 369.43414
2.1926117 65.651192 368.77744
1.8575897 65.734711 366.47711
2.2760925 65.7174 365.85641
2.6966553 65.699989 365.23697
3.9865112 65.349525 364.61343
4.4070587 65.331963 363.99811
2.7601624 65.810204 360.57648
3.1507874 65.837433 358.22247
3.9227448 65.792694 357.59027
5.8334503 65.357643 354.67358
6.1973114 65.298805 354.0881
6.3065033 65.304184 353.50607
0.78434753 65.133896 371.80988
1.1928711 65.118034 371.18225
1.6013489 65.10215 370.55606
1.425354 65.143951 369.40646
1.8378601 65.127678 368.78223
2.2523651 65.111237 368.15927
2.255661 65.168159 365.8287
3.0361786 64.946243 365.22421
3.9661102 64.802376 364.58582
4.386673 64.785225 363.97058
4.2722168 65.074577 363.33209
2.4053192 65.284576 360.57385
2.8378143 65.266296 359.95996
2.3623352 65.330032 358.82956
3.3508911 65.162079 358.20828
4.0095825 65.099838 357.59094
4.1117401 65.106018 357.00461
6.285202 64.608299 354.09012
6.3943787 64.613564 353.5083
1.0942688 64.560509 371.74677
1.1694183 64.569145 371.15463
1.5789337 64.553635 370.52841
1.4039154 64.594727 369.37869
1.8164368 64.578751 368.75455
2.230957 64.562721 368.1315
2.8633728 64.319725 365.23355
3.9467316 64.255104 364.55829
4.3672943 64.238449 363.94302
4.2192535 64.276443 362.79709
2.8193665 64.715424 359.93228
2.4430237 64.784409 358.21262
4.0964355 64.407402 357.59164
4.3017273 64.419319 356.41965
4.6182098 64.436539 354.66382
1.1469574 64.020256 371.12674
