ply
format ascii 1.0
comment PCL generated
element vertex 1545
property float x
property float y
property float z
element camera 0
property float view_px
property float view_py
property float view_pz
property float x_axisx
property float x_axisy
property float x_axisz
property float y_axisx
property float y_axisy
property float y_axisz
property float z_axisx
property float z_axisy
property float z_axisz
property float focal
property float scalex
property float scaley
property float centerx
property float centery
property int viewportx
property int viewporty
property float k1
property float k2
end_header
-32.726547 56.934322 349.4913
-33.112663 56.880444 350.04764
-34.783371 56.48457 350.61407
-28.161974 57.673328 340.19296
-28.819706 57.597397 340.79526
-29.193552 57.544285 341.36722
-29.569349 57.490917 341.93826
-32.986603 56.408283 349.50647
-33.371742 56.354824 350.06229
-23.693745 58.295803 338.88864
-27.394999 57.466061 340.1915
-28.511648 57.112278 340.76157
-32.965611 55.904079 349.50101
-33.930058 55.646389 350.04565
-24.13604 57.598167 339.43536
-24.135778 57.697075 340.0188
-27.918633 56.647842 340.69949
-28.295498 56.595173 341.27328
-28.671356 56.542465 341.84573
-32.664509 55.420555 349.47479
-33.780128 55.07217 350.00433
-23.352079 57.288757 338.8479
-23.615871 56.999237 339.33881
-24.868202 56.879379 340.01001
-28.271265 56.086693 341.26804
-28.648254 56.034344 341.84058
-29.197252 55.727005 342.34869
-32.643448 54.915756 349.46939
-23.591452 56.484158 339.33374
-24.262064 56.409561 339.9458
-26.013842 56.091679 340.60995
-27.391245 55.640903 341.17841
-28.055054 55.567879 341.7803
-30.934568 54.798363 348.88812
-32.555317 54.366337 350.51596
-23.3619 55.95948 339.85153
-25.952253 55.50106 340.57431
-27.745893 55.07917 341.74744
-28.124775 55.027443 342.3204
-31.47484 53.983879 349.37491
-31.863886 53.932129 349.93338
-31.971022 53.899811 350.47046
-22.751575 55.485802 339.78659
-25.638943 55.009628 340.54016
-26.307692 54.937321 341.14645
-27.149731 54.609715 341.68658
-27.999004 54.42828 342.27313
-33.105717 53.440208 347.90997
-33.379036 53.155663 348.37888
-30.887403 53.515503 349.32709
-25.614614 54.496941 340.53506
-26.371538 54.29776 341.10953
-26.550457 54.13868 341.62534
-27.218351 54.067688 342.22797
-32.889671 52.829021 347.84952
-33.637264 52.633965 348.39532
-25.011341 54.023708 340.47165
-32.848793 52.231022 347.27484
-33.231983 52.180897 347.83313
-33.337109 52.148693 348.36829
-25.367786 53.459274 341.04562
-27.092409 53.268806 342.82886
-32.182308 51.888237 347.25739
-33.316021 51.644997 348.36313
-24.763382 52.983654 340.983
-25.814358 52.767948 341.58597
-26.28434 52.590282 342.12979
-26.580114 52.667381 342.7374
-27.338228 52.471313 343.30518
-32.095264 51.347008 347.23328
-32.630661 51.207829 347.77798
-32.735664 51.175499 348.31409
-24.156902 52.506302 340.9201
-26.260044 52.077797 342.1246
-26.643929 52.027943 342.69977
-26.738768 51.99612 343.24667
-26.835621 51.964214 343.79349
-31.944204 50.769066 347.1904
-32.048199 50.73674 347.72769
-24.224239 51.959198 341.4664
-26.235687 51.565319 342.11957
-26.619602 51.515743 342.69476
-26.715448 51.483891 343.24167
-27.100403 51.434353 343.81467
-32.132084 50.198708 348.25943
-24.960178 51.153809 341.45279
-26.212339 51.052574 342.11465
-26.596285 51.003441 342.6897
-26.788952 50.939495 343.78339
-30.9692 49.931629 347.14441
-31.441568 49.75737 347.67181
-31.547609 49.724861 348.20978
-25.609795 50.573547 342.05374
-25.994747 50.524639 342.62991
-26.476555 50.443756 343.75192
-25.296389 50.07629 342.02066
-25.68119 50.027763 342.59738
-26.067183 49.979237 343.17282
-26.164036 49.947021 343.72043
-23.826897 49.965923 338.67673
-24.824667 49.668018 342.00031
-25.656893 49.513874 342.59244
-26.043894 49.465706 343.16791
-26.140684 49.43351 343.71555
-30.35504 48.532429 347.65659
-24.113705 49.27158 338.64957
-24.115334 49.365902 339.23337
-24.028793 49.586803 339.84961
-25.052179 49.030994 342.53217
-25.439148 48.98312 343.10861
-25.635752 48.918449 344.20551
-29.479006 48.067814 347.58258
-24.088341 48.756519 338.64481
-24.178112 48.724472 339.19614
-24.268799 48.692406 339.74719
-24.360554 48.660286 340.2981
-23.785471 48.879623 341.40814
-24.172379 48.831974 341.98795
-25.124582 48.483665 343.07651
-25.513504 48.436108 343.65225
-28.423483 47.852352 347.57758
-23.302814 48.429554 338.05734
-23.77173 48.256428 338.6087
-24.153601 48.209393 339.19135
-24.244379 48.177208 339.74237
-24.336103 48.145008 340.2933
-23.76096 48.363033 341.40344
-24.61735 48.048111 341.94452
-24.809925 47.983334 343.04419
-25.490185 47.921413 343.6474
-27.825603 47.369007 347.52606
-23.366478 47.787491 338.0202
-23.746334 47.740791 338.60397
-24.128237 47.694138 339.18655
-24.218985 47.661873 339.73761
-24.404478 47.597282 340.83914
-24.009615 47.561283 341.88275
-24.298826 47.463776 343.53455
-24.982107 47.40255 344.13785
-28.276318 46.736877 347.52557
-23.72097 47.225151 338.59918
-24.10281 47.178795 339.18185
-24.484715 47.132458 339.76315
-24.379999 47.081707 340.83435
-24.27632 47.030888 341.90634
-24.666349 46.90052 344.10641
-28.53207 46.066593 347.49258
-23.403259 46.722889 338.56299
-24.077354 46.663322 339.17725
-24.460264 46.617371 339.75854
-24.354603 46.566135 340.82965
-24.252846 46.514671 341.90152
-23.485043 46.710037 343.53925
-24.056353 46.410973 344.04816
-27.076084 45.889484 346.91959
-23.085701 46.219738 338.52695
-24.051897 46.147667 339.17258
-24.143682 46.115261 339.72354
-24.330153 46.050354 340.82489
-23.936203 46.011402 341.86829
-24.032879 45.893559 344.04327
-27.430353 45.238205 346.90341
-22.76799 45.715706 338.49069
-23.150869 45.67038 339.07486
-23.789717 45.533077 339.65588
-24.301146 45.442039 340.23618
-24.394882 45.409363 340.78659
-24.847939 45.401722 341.38663
-23.616362 45.421574 343.46066
-23.715075 45.388706 344.0116
-22.832211 45.165668 339.03903
-24.458668 44.76873 340.7482
-25.134993 44.712044 341.35629
-23.592766 44.90353 343.45578
-27.309521 44.203239 346.33759
-22.806633 44.648006 339.03445
-25.110544 44.197155 341.35172
-26.679705 43.753452 346.2951
-22.963055 43.972694 339.54892
-23.553068 44.041733 340.19601
-23.960234 43.835297 340.72183
-24.794876 43.693291 341.3179
-23.449888 43.81242 344.52127
-26.36587 43.249931 346.26553
-23.706032 43.275742 340.12363
-24.384373 43.221298 340.73431
-24.770428 43.1777 341.31329
-25.158497 43.13414 341.89111
-25.963797 42.869785 346.27155
-24.745947 42.662086 341.30884
-23.40184 42.774712 344.51181
-23.273499 42.376175 340.11816
-24.430157 42.156128 341.27496
-25.109659 42.103428 341.88214
-23.082844 42.265606 344.48044
-25.230328 41.890839 345.66464
-23.821989 41.658619 341.21176
-24.502499 41.606667 341.82013
-25.207832 41.374184 345.65994
-21.178904 41.586575 338.84998
-21.567827 41.544003 339.43637
-22.388226 41.568764 340.09515
-23.796501 41.141365 341.20718
-24.185638 41.099133 341.78668
-21.153233 41.065914 338.84552
-22.223171 40.882114 339.45993
-22.321253 40.939507 340.60086
-24.161127 40.582249 341.7821
-22.110546 40.457832 344.8392
-24.260221 40.528393 345.63013
-22.286861 40.239182 339.42111
-23.257435 40.089283 341.69049
-23.94298 40.039772 342.29892
-24.257982 39.847313 345.56897
-22.473623 39.648678 344.95569
-21.941339 39.208057 339.38092
-22.330446 39.167198 339.96533
-22.432493 39.223679 341.10556
-22.61944 39.066669 341.62299
-22.718122 39.0331 342.17496
-22.049931 39.168564 344.37198
-22.553741 39.094101 345.5029
-21.620329 38.695099 339.34521
-22.009375 38.654652 339.93005
-22.003914 38.560738 341.55954
-22.322742 38.640064 344.39447
-22.322948 38.455776 345.43564
-21.689339 38.14106 339.89468
-21.784998 38.107452 340.44846
-21.405554 38.138355 344.30859
-21.367289 37.626553 339.85925
-21.759417 37.586784 340.44412
-21.856052 37.55315 340.99744
-21.953728 37.519379 341.55054
-22.152037 37.451942 342.65628
-21.473183 37.491852 344.26743
-22.170876 37.44643 344.8743
-21.045177 37.11113 339.82385
-21.437336 37.071659 340.40909
-21.830442 37.032379 340.99307
-21.928024 36.998608 341.54626
-22.12743 36.931034 342.65189
-21.539865 36.845772 344.22614
-20.914322 36.526844 340.89795
-21.606918 36.482735 341.51221
-22.11125 36.313354 344.27643
-20.592119 36.009228 340.86325
-21.283709 35.965931 341.47794
-21.584665 35.864105 343.13882
-22.086586 35.791763 344.27188
-20.961535 35.448078 341.44382
-22.154129 35.333801 343.19104
-20.737919 34.895195 341.96426
-22.129494 34.812515 343.18671
-20.7215 34.460533 342.55093
-22.104858 34.291 343.1824
-20.8897 33.780499 343.06427
-21.588617 33.740871 343.67422
-21.266228 33.220592 343.64185
-20.942892 32.699341 343.6095
-20.618488 32.177029 343.57693
-21.021849 32.141457 344.15866
-19.405327 31.9342 343.00629
-20.294022 31.653814 343.5444
-20.698391 31.618494 344.12659
-19.472893 31.286301 342.96487
-19.968611 31.129557 343.51166
-20.373894 31.094572 344.09451
-19.238768 30.638777 342.89417
-19.943789 30.604156 343.50742
-20.349167 30.56978 344.0903
-19.618286 30.07839 343.47464
-20.62512 30.04516 344.11389
-18.42016 29.665323 342.84274
-19.593464 29.552391 343.47049
-20.300594 29.519646 344.08182
-18.256025 29.055845 342.79379
-19.568705 29.026293 343.46637
-19.974997 28.993069 344.04959
-18.93928 28.496679 343.4046
-20.111794 28.387541 344.02942
-18.30781 27.965034 343.34277
-20.410114 27.703011 343.99323
-18.586754 27.439486 343.36765
-19.296936 27.410185 343.9809
-18.864693 26.914774 343.39249
-19.365509 26.762974 343.93839
-18.814898 25.859768 343.38443
-18.882494 25.212395 343.34189
-19.22084 25.140743 343.90381
-18.553753 24.679939 343.30893
-19.358643 24.535601 343.88339
-18.194141 24.186113 343.28867
-19.33379 24.008589 343.87939
-18.597443 23.504225 343.26224
-19.308939 23.481493 343.87543
-18.572557 22.976124 343.2583
-19.285063 22.95425 343.87149
-18.85062 22.454893 343.28363
-19.42186 22.350338 343.85107
-18.521786 21.919748 343.2504
-17.888935 21.375568 343.18777
-18.604403 21.356258 343.80225
-17.86393 20.846161 343.18393
-18.579428 20.827753 343.79837
-18.250589 20.290298 343.76563
-18.226654 19.761154 343.76181
-18.293333 19.114534 343.71832
-17.60928 17.504374 343.64853
-18.288143 16.880688 343.66333
-18.263168 16.351484 343.65958
-17.428555 15.848661 343.60251
-18.348743 15.786805 344.21088
-17.297812 15.253073 343.5639
-18.323893 15.257393 344.20709
-17.272774 14.722163 343.56015
-17.994747 14.714138 344.1745
-17.247768 14.19125 343.55646
-17.664595 14.169919 344.14185
-17.222792 13.660141 343.55276
-17.639618 13.639416 344.13809
-17.197784 13.129034 343.54916
-17.88155 13.041865 344.1265
-16.841467 12.050459 343.51227
-16.816429 11.518645 343.50864
-17.869396 11.374187 344.08841
-18.00836 10.773122 344.06714
-17.984272 10.242872 344.06351
-16.835936 9.808321 343.45697
-17.654024 9.6944609 344.03055
-16.904724 9.1622543 343.41235
-17.629049 9.1636515 344.02692
-16.879684 8.6303682 343.40881
-17.605019 8.6327877 344.02356
-16.854677 8.0984488 343.4053
-17.580988 8.1017847 344.01999
-16.82958 7.5664515 343.40186
-17.555983 7.5707479 344.01642
-16.804512 7.0343914 343.39835
-17.624802 6.9266596 343.97141
-17.693531 6.2828898 343.92615
-16.823195 5.3253188 343.34631
-17.644556 5.2210369 343.91913
-16.891953 4.6808105 343.30115
-17.620525 4.6899953 343.91568
-17.174416 4.1716456 343.32794
-17.595518 4.1589236 343.9122
-16.842793 3.616637 343.29422
-17.571518 3.627753 343.90872
-16.818792 3.0844409 343.2908
-13.418341 2.3761046 332.41904
-14.632596 2.3351555 334.21841
-14.825926 2.1877508 334.73782
-15.30289 2.2193284 335.36011
-15.639623 2.1616211 335.92953
-16.04751 2.1487889 336.52341
-16.456526 2.1361609 337.11609
-21.740129 1.5953354 347.85342
-22.269508 1.6535996 348.45853
-22.589121 1.5767788 348.99368
-22.804855 1.4323971 349.4942
-23.657938 1.4148282 350.62701
-23.696972 1.4915363 351.21204
-23.826876 1.4580096 351.75336
-24.231182 1.4006313 352.29419
-24.775162 1.3313416 352.83328
-25.204969 1.3234524 353.39294
-15.36872 1.5557132 340.96213
-15.788816 1.5447313 341.55148
-16.169636 1.4516097 342.1008
-18.014057 1.1748452 345.46841
-18.275156 1.2306696 346.06763
-18.772724 1.2666306 346.66974
-38.351685 116.31588 329.30341
-37.922115 116.05663 328.73236
-38.2728 115.64701 330.18759
-38.767689 114.8274 329.83636
-38.911575 114.23241 330.05399
-39.460987 113.5575 327.94522
-39.071457 113.26964 329.32288
-38.752789 112.83485 330.74979
-38.402866 113.05842 331.31766
-39.491821 112.89265 327.96005
-39.439949 112.74627 328.87634
-39.278591 112.52996 329.58911
-39.118664 112.31263 330.30179
-38.720474 112.31862 330.7164
-39.28363 112.45135 327.67334
-39.40757 112.23008 328.84296
-39.485176 111.79134 329.85471
-39.08625 111.79642 330.2684
-38.688736 111.80238 330.68375
-37.674652 111.74128 332.18137
-39.25116 111.93317 327.63992
-39.452736 111.27516 329.82126
-39.054546 111.28117 330.23587
-38.656239 111.28616 330.65039
-38.74025 110.84727 331.66144
-37.745308 111.10097 332.26425
-39.088169 111.1263 328.34488
-39.070351 110.90843 329.28665
-39.152134 110.47053 330.29993
-38.75388 110.47554 330.71442
-38.31292 110.33587 332.04486
-38.094509 110.26493 332.71017
-39.32856 110.31316 328.63724
-38.324657 109.96323 331.09689
-38.456631 109.74596 332.26038
-38.304485 109.5293 332.97403
-37.099274 109.82867 333.26663
-42.554989 107.55984 334.00131
-42.335423 107.49249 334.65543
-38.392014 109.22683 331.13766
-38.555771 108.93826 332.32458
-42.586864 106.90797 334.0163
-42.36721 106.84064 334.67035
-38.349319 108.49457 332.04446
-42.555317 106.39969 333.98404
-42.33572 106.33237 334.63818
-39.058056 106.32259 335.83612
-42.492214 105.38215 333.91949
-42.103329 105.38394 334.33167
-40.941143 105.38692 335.57346
-39.26553 105.59629 336.09479
-42.460632 104.87386 333.88739
-42.044937 104.72993 334.20096
-41.748158 104.73277 334.75977
-41.425999 104.59076 335.22134
-39.793827 105.01616 335.88925
-39.473896 104.87194 336.354
-41.611141 104.14807 334.53217
-41.394356 104.0815 335.18918
-40.622574 104.08159 336.0199
-39.681068 104.14867 336.61191
-41.409573 103.70598 334.25708
-41.022091 103.70662 334.672
-40.634491 103.70624 335.08688
-40.419899 103.6385 335.74591
-39.476997 103.70564 336.33777
-40.990417 103.19634 334.63977
-40.603519 103.19589 335.05545
-40.388779 103.12915 335.71454
-39.446541 103.19424 336.30701
-40.318333 102.39773 335.53494
-38.647137 102.67953 337.11389
-35.869209 105.02464 328.76947
-40.416225 101.68824 336.64624
-38.616653 102.16813 337.08328
-36.1889 104.16528 329.15701
-40.597923 101.24567 335.95624
-40.385044 101.17889 336.61499
-39.065731 101.23787 337.62994
-36.403633 103.42819 329.42728
-40.56683 100.73636 335.92493
-40.249096 100.59107 336.38898
-40.209652 100.45998 337.29025
-39.034546 100.72755 337.59863
-40.364159 100.29027 335.65063
-39.901821 99.936356 336.82281
-40.332973 99.779945 335.61942
-36.369934 99.945244 338.68192
-39.279236 97.796341 344.22168
-40.197453 99.190125 335.39264
-40.064533 99.055908 336.15002
-39.840214 98.915619 336.76099
-39.458038 98.911865 337.18011
-39.076694 98.909035 337.59995
-37.139465 99.163498 338.75803
-36.692249 99.303062 339.13589
-39.432236 97.084587 344.38638
-39.169537 97.157417 344.99857
-39.676521 98.597374 335.58279
-39.464741 98.53109 336.24475
-39.254395 98.464577 336.90677
-38.110867 98.453026 338.16965
-37.149078 98.375931 339.68094
-39.601635 96.647018 343.70178
-39.232067 96.64048 344.12387
-39.206848 96.511536 345.01428
-39.473694 98.148605 335.30847
-39.434166 98.019516 336.21411
-39.050739 98.016075 336.63318
-38.0802 97.941124 338.1391
-36.943199 97.926903 339.40958
-39.401188 96.202377 343.43796
-39.270351 95.993858 344.13986
-39.152817 95.859131 344.88913
-38.810852 95.999222 345.40909
-39.230331 97.570496 335.93942
-39.020073 97.504204 336.6026
-38.0495 97.429146 338.10861
-36.913082 97.414253 339.37982
-38.940685 95.340225 344.57919
-38.573372 95.332619 345.00314
-34.444805 99.973495 329.70276
-38.642708 97.116486 336.08517
-38.433155 97.050346 336.74915
-37.669933 97.041374 337.59332
-37.707932 96.769691 338.54779
-38.911579 94.834488 344.55029
-38.544235 94.826721 344.97443
-38.177563 94.818741 345.39914
-34.747009 99.167603 330.07529
-38.264244 96.727379 335.56598
-38.228401 96.599419 336.47516
-37.639114 96.52832 337.56281
-37.536774 96.247643 338.29825
-42.004333 93.553627 345.01413
-38.90741 94.455109 343.62848
-38.320435 94.253448 345.60342
-34.701172 98.569107 329.99109
-34.667038 98.437462 330.92215
-37.849144 96.209221 335.95654
-34.352901 97.880791 333.30191
-42.174423 92.925835 345.2373
-38.878208 93.948357 343.5997
-34.488396 98.11013 329.70468
-34.596184 97.688217 330.73587
-34.635746 97.611908 331.80069
-34.321133 97.359573 333.27039
-36.670704 95.679916 337.1954
-41.880241 92.209328 345.69437
-38.674458 92.985123 346.05643
-34.530033 97.035484 331.63269
-34.499104 96.905289 332.56201
-41.581203 92.163345 344.46405
-41.851231 91.708511 345.66589
-34.137379 96.639168 331.09595
-34.357594 96.301826 332.32748
-34.399334 96.027611 333.30466
-35.90321 94.892548 336.1553
-41.487774 91.319664 345.17542
-40.692406 91.440254 345.97443
-37.440392 91.98774 346.19843
-33.561974 96.3041 330.30298
-33.893456 96.049278 331.74319
-34.187626 95.568382 333.02286
-33.978798 95.501678 333.70001
-34.023899 95.228455 334.67535
-41.094223 90.808708 345.56799
-33.317501 95.71286 330.95218
-33.288734 95.583862 331.88654
-33.585838 95.103401 333.1676
-35.351788 93.769539 336.32156
-40.728752 90.417358 345.07645
-37.018826 90.964081 346.56909
-32.775959 95.603485 330.31192
-33.734768 94.519539 333.3869
-33.346977 94.51413 333.81558
-41.064117 89.92366 344.6254
-35.723297 90.502968 345.65677
-32.311581 94.844208 330.55261
-32.46727 94.65416 331.74405
-33.329029 93.842949 333.74185
-41.369911 89.311485 345.06
-36.07552 90.106873 346.24084
-32.278831 94.317749 330.52011
-32.362106 94.072861 331.5766
-32.117756 93.97821 332.19244
-41.172821 88.863174 344.79971
-40.955524 88.65181 345.35782
-35.871647 89.653702 345.97833
-35.508575 89.642822 346.40912
-32.062603 93.852226 330.23233
-32.366753 93.373909 331.52621
-40.470581 88.575935 343.84076
-40.915348 88.075294 345.28116
-40.720535 88.01152 345.93518
-35.479069 89.1334 346.38037
-32.396503 93.203995 330.71091
-32.15089 92.908531 331.23944
-32.491646 92.662537 332.68375
-40.441322 88.071327 343.81219
-35.45023 88.623848 346.35251
-32.436199 91.98465 332.54959
-40.418697 87.284492 344.65329
-40.493664 87.058975 345.64685
-35.421333 88.114174 346.32455
-32.756565 91.266006 332.9715
-40.126968 86.6605 345.15448
-33.595592 89.374741 340.47809
-35.370777 87.453819 346.19962
-33.34153 90.424736 333.74225
-39.816502 86.599007 343.91446
-39.92865 86.208427 344.89365
-39.903812 86.093201 345.78207
-33.206161 88.969521 339.96265
-35.505657 86.815247 346.35709
-32.922405 90.064674 333.19223
-33.190113 89.770355 334.49139
-39.106453 86.302521 342.94696
-39.080753 86.187103 343.84177
-39.535069 85.692627 345.2887
-33.355556 88.395927 340.17673
-33.666195 87.936852 341.42953
-32.733585 89.549873 332.92557
-33.145927 89.171623 334.40851
-39.076275 85.795158 342.91772
-38.879906 85.732376 343.57751
-39.336449 85.238976 345.02798
-33.398476 87.736542 340.19421
-33.456585 87.475151 341.15802
-32.752316 88.761391 333.87714
-38.850338 85.225075 343.54916
-38.655891 85.162262 344.20987
-33.440815 87.077553 340.21097
-33.426617 86.958351 341.12921
-35.955551 85.246445 346.07642
-35.056534 85.273422 346.7048
-32.356876 88.349701 333.34326
-39.016502 84.779984 342.85995
-39.061253 84.529045 343.79987
-38.625622 84.655106 344.18069
-38.331779 84.505905 344.65195
-32.180702 87.169083 338.62039
-33.037182 86.549057 340.61472
-32.845055 86.484154 341.29129
-36.031647 84.627525 346.15558
-35.027573 84.76326 346.67691
-38.930851 83.935333 343.58041
-32.826385 86.084778 340.34134
-35.866032 84.001328 345.8743
-38.730614 83.478065 343.3168
-38.707024 83.366028 344.21268
-38.392944 83.104523 345.57779
-38.12149 83.104424 346.14523
-32.616013 85.619453 340.06879
-34.969505 83.742615 346.62137
-38.505684 82.908478 343.9487
-38.483833 82.79702 344.84421
-38.433765 82.461075 345.59305
-38.072308 82.448112 346.02063
-32.03167 85.14167 340.2305
-34.226212 83.319656 346.55646
-38.304497 82.450157 343.68454
-38.282829 82.339111 344.58145
-32.760792 82.866844 347.36386
-31.424477 85.706383 334.05243
-38.461517 81.616867 344.76785
-38.374569 81.448044 345.53635
-37.653152 81.42141 346.39291
-32.400028 83.542213 341.54172
-32.731556 82.353874 347.33615
-30.975687 84.93898 334.30096
-38.365726 81.050606 344.61328
-38.002895 81.037361 345.04086
-37.640858 81.023972 345.46906
-37.623432 80.91436 346.36456
-33.136154 81.716118 346.91666
-31.310881 84.307495 334.77402
-37.973236 80.529747 345.01254
-37.611202 80.516266 345.44064
-37.250412 80.502457 345.87039
-33.541481 81.078934 346.49796
-33.180786 81.064484 346.93311
-37.891804 80.266785 344.04221
-37.771957 80.069351 344.74973
-37.924259 79.914108 345.87881
-32.084877 81.894051 342.06778
-33.511486 80.566216 346.46948
-33.151611 80.551582 346.9053
-32.79229 80.536736 347.34189
-37.397778 79.655045 344.25067
-37.207878 79.594109 344.91565
-36.845749 79.580154 345.34528
-32.129723 81.235725 342.08496
-31.941835 81.172806 342.76297
-33.482246 80.053452 346.44171
-33.122288 80.038521 346.87753
-32.762993 80.02356 347.31409
-32.229996 81.850845 336.80563
-37.004864 79.131851 344.65155
-36.81588 79.071053 345.31689
-31.731369 80.703529 342.49298
-32.555576 79.557762 347.05112
-36.455795 78.76136 343.91556
-36.439777 78.654366 344.8183
-31.631721 80.435959 341.49542
-31.700453 80.185005 342.46356
-32.965519 79.030289 345.72144
-32.70694 79.106491 346.34949
-32.526253 79.043999 347.02344
-36.067463 78.921364 341.70114
-35.874512 78.860939 342.37057
-35.756252 78.663246 343.08478
-36.062393 78.236092 344.31799
-30.625429 80.376862 340.24945
-31.489285 79.714394 342.19284
-33.010517 78.378014 345.73746
-35.742519 78.257118 342.14771
-35.726223 78.150635 343.05643
-30.40114 79.825989 339.92365
-35.712463 77.743614 342.11923
-35.6954 77.637894 343.02728
-35.580345 77.440918 343.74277
-34.761566 77.395905 344.46484
-33.484634 77.212677 346.39182
-33.302425 77.151459 347.06317
-35.506573 77.275536 341.85046
-35.623241 76.791977 343.7583
-35.958424 76.597717 345.13672
-33.454517 76.699547 346.36353
-33.096077 76.683533 346.80063
-33.093636 76.577438 347.70834
-35.300625 76.806557 341.58173
-35.28463 76.701859 342.49298
-35.243473 76.368752 343.25436
-35.579575 76.175529 344.63614
-33.425037 76.186188 346.33575
-33.06599 76.170128 346.77213
-32.886219 76.109261 347.44528
-34.851948 76.231209 341.88742
-35.387844 75.811272 343.46341
-35.54945 75.663696 344.60794
-28.869652 78.064583 338.8967
-33.217682 75.717056 346.07126
-33.036385 75.656578 346.74454
-32.678589 75.640091 347.18231
-34.519268 75.850975 341.47507
-35.357693 75.298172 343.43512
-35.344326 75.195343 344.34262
-34.797115 75.12027 345.44635
-29.137743 77.382706 339.2298
-33.010296 75.246986 345.8067
-32.651062 75.230522 346.24438
-32.291893 75.214012 346.6821
-35.326813 74.785095 343.40604
-35.388256 74.547142 344.35867
-35.202633 74.488091 345.02933
-34.841995 74.472107 345.46286
-28.548265 76.888763 339.3938
-32.620762 74.715927 346.21609
-31.725094 74.725883 346.85666
-34.945637 74.357697 342.9003
-35.258221 73.941528 344.13797
-34.897034 73.925354 344.57208
-34.53582 73.909058 345.00616
-31.874346 74.2705 346.1524
-34.915367 73.843384 342.87201
-34.50555 73.396057 344.97797
-30.944801 73.86631 345.8497
-34.629944 73.208427 343.38705
-34.551758 73.045609 344.16864
-34.475307 72.88282 344.94968
-34.115589 72.86602 345.38519
-30.890675 73.116524 345.67361
-33.275806 73.323204 341.71649
-34.454708 72.468964 344.01166
-40.766777 69.417053 353.67075
-40.081944 69.379723 354.52734
-33.642769 72.554085 342.15057
-34.062428 71.937958 344.41821
-40.396046 68.900742 354.073
-38.702557 68.993156 354.4711
-33.035454 72.329292 341.41705
-33.53437 71.875023 342.90771
-33.502186 71.545448 343.67453
-40.379047 68.495567 353.17264
-38.674149 68.493416 354.44492
-28.854475 72.284561 345.09286
-32.970524 71.480865 342.15762
-40.183746 68.033592 352.92203
-40.00676 67.978004 353.57474
-38.47781 68.030235 354.19522
-28.823801 71.763382 345.06436
-32.939243 70.96302 342.12857
-40.155308 67.534462 352.89594
-39.978321 67.479156 353.54865
-38.281258 67.56617 353.94565
-28.971313 71.30101 344.35162
-28.79377 71.242004 345.03671
-31.789454 70.85495 340.66354
-32.799282 70.252151 342.823
-39.960739 67.070961 352.6459
-37.910679 67.045486 354.3515
-28.756599 70.820122 344.08063
-28.219181 70.742874 345.21237
-37.887115 66.635323 353.44461
-28.542343 70.338066 343.81049
-28.409887 70.109703 344.47748
-40.663555 65.980705 351.7756
-40.650749 65.891525 352.65314
-40.379276 65.742645 353.12207
-39.892715 65.981918 353.4707
-40.707375 65.351608 351.79047
-40.363003 65.332092 352.21924
-40.184734 65.27813 352.87195
-39.499657 65.238411 353.73123
-27.748428 69.352859 343.71231
-39.869438 65.24765 350.77963
-40.333778 64.83252 352.19244
-39.990074 64.812637 352.62177
-39.304417 64.772682 353.48172
-27.903139 68.78952 343.92764
-40.005852 64.712166 350.97852
-39.972614 64.39994 351.71573
-39.96085 64.312851 352.59503
-39.617943 64.292816 353.02502
-39.777126 63.932556 351.46344
-39.599018 63.879269 352.11887
-39.255531 63.859062 352.54953
-38.912651 63.838764 352.9808
-27.053564 67.03804 343.64941
-39.069927 63.28648 350.64813
-38.965717 63.104248 351.34729
-38.862331 62.921936 352.04562
-37.838848 62.946022 352.45822
-36.66238 63.143295 353.67908
-27.208855 66.475433 343.86563
-32.239704 65.525932 342.12875
-31.144526 64.428856 342.4964
-36.922363 61.82172 351.38788
-36.993988 61.607471 352.31848
-36.72657 61.456829 352.79468
-36.384884 61.435497 353.23041
-31.420712 63.928162 342.92264
-36.380447 61.410938 350.67517
-31.028332 63.388241 343.33557
-36.005009 60.882961 351.08377
-30.621613 62.779373 342.72165
-30.53533 62.747845 343.55203
-36.14719 60.344975 351.28674
-36.018715 60.13052 351.93008
-35.803627 60.240635 352.61627
-30.582644 62.17981 342.64191
-30.583868 62.093143 343.56873
-35.429707 59.959942 350.34171
-30.391468 62.098095 340.66226
-30.190203 61.637733 343.05609
-34.880871 59.459862 350.52167
-30.177849 61.607319 340.38806
-30.177149 61.521523 341.32086
-30.338411 61.16869 342.34195
-29.977467 61.148067 342.78531
-29.981012 61.062725 343.71417
-35.790672 58.673355 351.68509
-35.696198 58.493057 352.39163
-30.124941 60.762974 341.13828
-29.763481 60.6576 342.51288
-29.767178 60.572891 343.44296
-35.339947 58.353432 351.159
-30.274162 60.207722 341.35394
-29.371618 60.113503 342.92917
-35.137562 57.874043 350.9028
-30.242054 59.684383 341.32516
-29.518026 59.642448 342.21243
-29.157204 59.621342 342.65698
-34.935051 57.393559 350.64642
-34.590527 57.371399 351.08484
-34.245998 57.349133 351.52332
-29.846798 59.222374 340.8067
-29.483809 59.201298 341.25061
-29.30337 59.149445 341.93912
-29.125797 59.097336 342.62906
-34.558441 56.940453 350.15802
-34.21661 56.839481 351.49731
-29.814659 58.697849 340.77798
-29.451609 58.676651 341.22189
-29.089321 58.655396 341.66644
-29.195837 58.675896 342.79962
-34.528351 56.430168 350.13129
-33.663643 56.412827 350.77875
-26.392191 58.854584 343.7692
-32.103546 56.428009 351.4082
-29.4195 58.151905 341.19318
-29.057121 58.130455 341.63773
-28.878481 58.079086 342.3273
-33.114132 55.90633 350.96152
-25.986406 58.38834 343.25073
-29.203621 57.656528 340.91797
-29.207531 57.575958 341.85376
-28.302998 57.561974 342.50098
-33.42392 55.494286 349.58875
-33.07811 55.47155 350.02982
-32.387955 55.425636 350.91306
-32.043793 55.402496 351.35529
-29.131184 56.96273 341.71432
-32.357746 54.912868 350.88626
-32.014225 54.889656 351.32919
-28.759697 56.346939 341.15213
-28.764616 56.26799 342.0885
-27.879023 56.488903 342.89099
-32.152878 54.810211 348.95721
-31.974728 54.452286 350.39508
-31.984535 54.376522 351.30313
-33.507294 54.157391 347.97552
-33.171429 54.28886 348.51688
-27.847309 55.962997 342.86313
-31.600079 53.915012 350.81186
-33.470737 53.56636 347.89838
-33.298363 53.517754 348.57376
-32.251335 53.522217 348.98813
-31.559265 53.47533 349.87457
-31.214399 53.451694 350.31882
-33.439491 53.052319 347.871
-33.267048 53.004028 348.54645
-32.574028 52.957321 349.42969
-33.582783 52.586109 347.16891
-33.40897 52.538151 347.8443
-33.236565 52.49025 348.51974
-32.54351 52.443356 349.40302
-30.716 52.599949 349.75494
-33.026588 52.072453 347.34647
-32.854179 52.024685 348.02344
-32.336361 51.953308 349.14215
-32.819038 51.581055 347.08304
-32.646935 51.533619 347.76111
-32.475624 51.486107 348.43835
-32.129051 51.462288 348.88135
-24.109314 53.472473 343.59439
-32.439144 51.041622 347.49786
-32.444927 50.970932 348.4118
-31.574507 50.946522 349.06268
-24.387886 52.818554 343.92648
-31.876528 50.594841 346.76056
-31.882278 50.524723 347.67722
-31.712645 50.477623 348.35709
-31.543806 50.430634 349.03613
-24.348417 52.192501 343.83551
-31.495407 50.053406 347.17636
-31.32559 50.006546 347.85776
-31.334915 49.937119 348.77386
-31.286606 49.557964 346.91251
-31.115782 49.511459 347.59351
-30.947098 49.464832 348.27518
-30.548002 49.059155 346.85364
-30.37892 49.012756 347.53723
-30.000055 48.469101 347.95633
-25.67551 49.882172 343.70963
-23.906452 50.324535 337.94113
-24.112535 50.229706 339.1528
-25.728073 49.222534 343.72607
-25.645767 49.044834 344.46848
-25.292051 49.020218 344.92114
-24.44282 49.407619 339.46887
-24.460159 49.337788 340.42462
-25.762836 48.631706 342.79837
-25.593933 48.585098 343.4971
-25.239424 48.560371 343.95056
-25.260702 48.491756 344.89413
-24.203794 48.965149 338.22968
-24.409088 48.873547 339.43954
-24.427071 48.804447 340.39612
-28.486872 47.243771 347.04498
-24.16991 48.429665 338.20032
-24.566029 48.317169 339.66296
-24.583279 48.249084 340.61749
-24.792023 48.159206 341.81995
-27.825401 46.608181 347.0303
-24.632645 47.497704 344.10272
-24.326271 47.872303 338.42426
-24.619139 47.652187 339.67993
-24.534145 47.475113 340.43051
-24.552738 47.408035 341.38397
-28.243418 45.917751 347.52567
-24.483654 47.008121 339.4462
-24.501055 46.941681 340.40204
-24.519617 46.875488 341.35556
-24.161385 46.850548 341.80984
-27.310938 45.728214 346.45175
-23.446993 46.800377 342.72055
-24.449739 46.473846 339.41693
-24.555233 46.277622 340.41949
-24.486467 46.342762 341.32715
-24.128904 46.31765 341.7821
-27.278891 45.203697 346.42441
-23.414543 46.267281 342.69281
-23.370874 46.128277 343.50961
-23.450642 45.895641 344.43793
-24.037291 45.979134 338.88461
-25.174013 45.555454 341.18509
-27.062912 44.697414 346.15543
-23.581818 45.408951 343.70682
-23.418316 45.363949 344.41016
-24.383253 45.404762 339.36005
-25.140953 45.023399 341.15671
-24.972082 44.979 341.85971
-26.846691 44.190243 345.88651
-23.38596 44.832241 344.38248
-25.107714 44.491261 341.12833
-24.938871 44.44717 341.83142
-26.999304 43.646847 346.10141
-23.213671 44.555946 342.4053
-23.13637 44.381531 343.15564
-23.16354 44.318726 344.108
-25.263069 43.940857 341.34976
-24.905783 43.915222 341.8031
-23.103951 43.848228 343.12796
-23.131153 43.786327 344.08035
-25.220831 43.248611 341.21564
-24.959505 43.25423 341.8197
-24.603773 43.228378 342.27429
-24.160772 43.331577 342.68417
-26.030554 42.619793 345.7717
-22.908581 43.271206 343.80588
-25.013958 42.593384 341.83704
-24.657679 42.56739 342.29077
-25.650038 42.066284 346.19852
-22.684603 42.755119 343.52985
-22.890982 42.4361 344.57266
-24.792667 42.077942 341.55994
-24.625139 42.035294 342.26324
-22.843437 42.204712 343.7507
-24.591896 41.503139 342.23499
-24.237049 41.476837 342.69006
-24.676065 41.031136 345.8678
-22.826023 41.370899 344.51746
-24.18103 41.001972 341.70895
-22.793484 40.838112 344.48984
-22.153391 41.295383 338.4761
-22.266884 41.107658 339.48828
-22.362759 40.634521 343.17099
-23.88657 39.975143 345.78055
-22.208483 40.626892 338.49356
-22.232632 40.569679 339.45908
-23.670965 40.03672 342.06387
-22.226873 39.986 342.93863
-22.415117 39.877148 344.07571
-22.174141 40.087914 338.46451
-22.288092 39.902599 339.47638
-22.471661 39.793827 340.62366
-23.181393 39.362061 342.28833
-22.313688 39.267113 343.91202
-22.537458 39.197876 345.11411
-22.151382 39.249973 339.24026
-22.561398 39.166523 340.70993
-22.089314 38.746517 343.63608
-22.313389 38.67852 344.83939
-22.11768 38.711437 339.21194
-22.143812 38.657074 340.17715
-22.171625 38.60284 341.14066
-22.569994 38.27932 342.44061
-22.248791 38.198444 343.85779
-22.089867 38.1581 344.56534
-21.724276 38.145802 339.64191
-22.728586 37.731255 342.66318
-21.832121 37.689423 343.33255
-22.057144 37.624004 344.53796
-21.883659 37.59425 339.86761
-21.525881 37.566956 340.32693
-21.766699 37.205986 342.34454
-21.763666 37.025185 344.12604
-21.680841 36.934994 340.49741
-21.702192 36.720909 341.35403
-21.540674 36.681469 342.0657
-21.888168 36.440193 344.27826
-21.283386 36.20647 340.82217
-21.314619 36.155769 341.78683
-21.381784 36.054874 343.71039
-21.280886 35.618126 341.75864
-21.438589 35.391796 343.72659
-21.146921 34.700939 344.20569
-21.395718 33.703964 342.7283
-21.241796 33.747593 343.49362
-21.149321 33.70718 344.28748
-21.011255 33.138657 343.16217
-21.047922 33.09285 344.12344
-20.821987 32.564804 343.84708
-20.594769 32.035793 343.56909
-20.173212 31.513153 343.04041
-20.213175 31.469646 344.00565
-20.374607 30.925072 344.22852
-19.952227 30.400631 343.70062
-19.724518 29.868221 343.42279
-19.691242 29.329226 343.39551
-19.625057 28.250877 343.34171
-19.488373 27.590998 343.10645
-19.547373 26.926825 343.12326
-19.590179 26.890429 344.09045
-19.708958 26.384172 343.34756
-19.361952 26.354622 343.81296
-19.28471 25.849932 342.81653
-19.328491 25.815226 343.78571
-19.099623 25.277773 343.5072
-18.870052 24.739277 343.22794
-18.836409 24.198584 343.20074
-18.802889 23.657791 343.17358
-18.922031 23.018538 343.28198
-18.910006 22.963776 344.16132
-18.565945 21.369778 342.85703
-18.510349 21.218363 343.62021
-18.476677 20.677364 343.59305
-18.246645 20.133781 343.31387
-18.212757 19.592083 343.28683
-17.982113 19.04686 343.00668
-18.145927 18.508335 343.23337
-18.335924 16.766644 343.44894
-18.28384 16.620628 344.21204
-18.249985 16.079529 344.18509
-18.019369 15.531951 343.9061
-17.986063 14.990094 343.87988
-17.952816 14.448242 343.85367
-17.918806 13.906343 343.82681
-17.456509 12.80434 343.26791
-17.912809 12.161063 343.79001
-17.973522 11.500296 343.80539
-17.940123 10.958236 343.77933
-17.905993 10.41604 343.75253
-17.675161 9.8623667 343.47333
-17.64164 9.3195076 343.4473
-17.731035 7.4564347 343.45224
-17.500174 6.8995566 343.17273
238.08195 44.255089 -117.94999
-17.465858 6.3561788 343.146
-17.432274 5.812664 343.12
-17.397959 5.269105 343.09329
-17.257538 5.2524405 343.8183
-17.364283 4.7254009 343.06735
-17.223953 4.7092013 343.79239
-17.131926 4.1651597 342.78616
-17.290838 3.3899004 342.84381
-17.5462 3.4088039 344.07669
-19.547209 2.8070014 344.703
-37.055408 116.91327 330.138
-37.01215 115.91557 330.65427
-36.997173 115.34307 330.59915
-36.311787 115.2779 330.97992
-38.865784 114.86401 330.42157
-38.191467 114.63439 330.89636
-36.928455 114.6821 330.9147
-38.863068 114.12571 330.46558
-38.17643 114.06192 330.84131
-37.54491 114.08629 330.84952
-38.837914 113.41423 330.6001
-38.18689 113.15864 330.9874
-37.447639 113.00845 331.73178
-36.80444 113.19649 331.64285
-38.858395 112.64999 330.55658
-38.062603 112.41566 331.66675
-37.432514 112.43792 331.67685
-36.802399 112.46014 331.68796
-38.843357 112.07854 330.50067
-38.028706 111.56821 331.99011
-37.322933 111.53213 332.45547
-36.588112 111.38396 333.19806
-37.895466 110.6915 332.85437
-37.213745 110.62957 333.23032
-36.586128 110.65067 333.24237
-37.826054 110.03992 333.16443
-37.21207 109.8962 333.27557
-35.970921 109.77329 333.40378
-42.094772 108.99123 333.88272
-38.603085 109.69844 332.00497
-37.837765 109.14371 333.30997
-37.210484 109.1638 333.32193
-36.583199 109.18383 333.33493
-35.955704 109.20373 333.34995
-41.976227 108.10171 334.6442
-41.238483 107.96296 335.36523
-38.643131 109.21008 331.58423
-37.822609 108.5752 333.25513
-37.195324 108.59529 333.26718
-35.940422 108.63522 333.2952
-35.284351 108.98273 333.11191
-42.701771 107.67602 333.86661
-41.961376 107.53725 334.58862
-41.236019 107.23879 335.40814
-38.544617 108.14852 332.46243
-37.861889 108.08772 332.83636
-36.993927 107.37731 334.86182
-35.23138 108.16724 333.52206
-42.569992 106.95126 334.52899
-41.855766 106.49323 335.44489
-41.233433 106.5136 335.45093
-40.611034 106.53491 335.45804
-39.97543 106.71583 335.3688
-39.365414 106.57433 335.47614
-35.230221 107.43382 333.56839
-42.641262 106.38416 334.06055
-41.898651 106.00732 335.03226
-41.218521 105.95013 335.39545
-40.59594 105.97038 335.4035
-39.211319 105.45459 336.6897
-41.941563 105.52144 334.61865
-41.20343 105.38661 335.34097
-40.524548 105.32838 335.70517
-39.87291 104.94947 336.26901
-39.19635 104.89106 336.63525
-38.520702 104.83252 337.00342
-41.926376 104.95692 334.56415
-41.201477 104.66138 335.38477
-40.522602 104.60413 335.74902
-39.857876 104.38596 336.2146
-39.126057 104.25202 336.93704
-38.50552 104.26993 336.94998
-36.164581 104.73362 335.84183
-40.577438 103.95745 335.43573
-39.842815 103.82349 336.15918
-39.110905 103.68951 336.88263
-38.490303 103.70741 336.89554
-37.869492 103.72521 336.91058
-36.163578 104.00624 335.88748
-40.562374 103.39292 335.38116
-39.841324 103.10017 336.20407
-39.164707 103.04269 336.57138
-38.48909 102.98509 336.94058
-37.868397 103.00188 336.95544
-36.215847 103.35647 335.57596
-33.181526 103.75265 334.85626
-40.404655 102.28439 336.59338
-39.728283 102.22697 336.95966
-38.487812 102.26177 336.9855
-37.867306 102.27957 337.00043
-33.165913 103.18402 334.80344
-40.380032 101.59121 336.72308
-39.671474 101.43231 337.35809
-38.996933 101.37585 337.7244
-38.30933 101.47701 337.99426
-33.826527 102.67599 334.36557
-33.000511 102.38752 335.83563
-39.670414 100.71198 337.40323
-38.99593 100.65553 337.76953
-38.308422 100.75767 338.03946
-33.776119 101.87041 334.77649
-32.950962 101.58411 336.24368
-39.253948 97.783958 344.84021
-38.593079 97.729263 345.19876
-37.98624 97.743103 345.21866
-37.379093 97.756706 345.24054
-37.757542 99.966812 337.84738
-36.978653 99.765564 338.92276
-36.30859 99.708221 339.29413
-33.001217 100.93148 335.931
-39.25296 97.07946 344.88226
-38.606369 96.870567 345.33667
-37.999741 96.883896 345.35648
-37.259457 97.06945 345.86737
-36.978382 99.046799 338.96802
-32.990894 100.12542 336.134
-38.591434 96.320679 345.28397
-37.931782 96.266449 345.64264
-37.258709 96.365723 345.90955
-36.849506 98.216385 339.79919
-32.952862 99.403236 336.38791
-39.245739 95.949463 344.69626
-38.576283 95.770576 345.23132
-37.916756 95.716599 345.59103
-37.258022 95.662224 345.95169
-39.276402 95.340324 344.48224
-38.561256 95.220406 345.17972
-37.901669 95.166626 345.5394
-37.242874 95.112579 345.90005
-36.894543 97.137665 339.25934
-42.1035 94.364128 345.63791
-38.591831 94.611656 344.96472
-37.90123 94.463051 345.58255
-37.242706 94.409218 345.94427
-42.082035 93.60759 345.83289
-39.058334 93.671043 345.92114
-38.453205 93.682983 345.94193
-37.137688 93.576561 346.66138
-42.067104 93.059761 345.7793
-40.239079 93.250198 345.73505
-39.043217 93.122063 345.86856
-38.384609 93.069557 346.22629
-37.726788 93.016647 346.58606
-37.122509 93.027809 346.60983
-41.447559 92.524529 345.7417
-40.183056 92.485588 346.1123
-39.028072 92.572838 345.81598
-38.422813 92.58432 345.83777
-40.167999 91.937302 346.05975
-38.354156 91.971581 346.12222
-36.487293 91.940369 346.5325
-40.84182 91.136223 345.84424
-40.167439 91.237175 346.1022
-38.461346 91.39576 345.49136
-37.817776 91.191177 345.94803
-36.487587 91.238724 346.57672
-34.774284 91.393463 345.98563
-40.166904 90.537338 346.14459
-39.012619 90.620758 345.85001
-37.802536 90.641579 345.89545
-37.197281 90.651672 345.92017
-36.539886 90.599457 346.28293
-34.724854 90.627434 346.36792
-41.401489 90.179123 345.62445
-38.997349 90.071465 345.79739
-37.893887 90.215134 345.16858
-37.181858 90.101608 345.86853
-36.524498 90.049698 346.23132
-34.709305 90.076927 346.31729
-34.054173 90.023796 346.6861
-40.796288 89.490395 345.6846
-40.191643 89.50116 345.70337
-39.586845 89.511696 345.72409
-38.982143 89.522034 345.74478
-37.166466 89.551453 345.81689
-36.509075 89.499832 346.17966
-40.176342 88.952057 345.65079
-39.57164 88.962288 345.67151
-38.966721 88.972374 345.69321
-37.309891 89.183723 344.74863
-36.545631 89.010323 345.79086
-35.940132 89.019341 345.81854
-34.023048 88.92305 346.58475
-40.121086 88.192307 346.02939
-38.966949 88.271469 345.73654
-36.651379 88.428223 345.15964
-35.976292 88.528862 345.42755
-35.335712 88.324959 345.8923
-34.629089 88.212875 346.59845
-34.02441 88.220711 346.63004
-40.12101 87.492996 346.07288
-38.967274 87.570824 345.78091
-34.630264 87.511017 346.64374
-34.025799 87.518486 346.67633
-40.161106 87.002747 345.685
-38.951973 87.021103 345.72833
-35.185204 86.743652 346.9949
-39.541103 86.462494 345.65311
-38.936516 86.471397 345.67572
-38.812496 85.806541 346.29379
-35.792007 85.845757 346.42871
-33.324821 85.815529 346.89423
-39.14687 85.960854 343.68256
-35.793522 85.14502 346.47412
-35.206631 85.001335 346.60162
-33.376144 85.171318 346.60315
-32.812893 86.825668 341.02856
-39.147495 85.256889 343.72668
-38.447433 84.99987 344.52707
-37.787018 84.950729 344.89105
-37.180786 84.958389 344.9166
-35.794941 84.444588 346.51953
-35.190964 84.451187 346.54999
-34.586834 84.457451 346.58252
-32.737766 84.776978 346.49091
-39.148304 84.553154 343.77191
-37.825134 84.455589 344.49887
-37.165058 84.406433 344.86478
-35.175144 83.900749 346.4993
-34.571011 83.906998 346.53085
-32.758259 83.924225 346.63324
-38.929539 83.62664 345.17105
-38.232773 83.373146 345.96664
-37.575203 83.32473 346.32971
-37.043144 83.74234 345.48898
-35.262123 83.461555 345.77264
-34.555191 83.35627 346.48013
-32.742493 83.37291 346.58252
-31.196363 83.87619 344.55637
-38.875744 82.870934 345.55295
-38.217136 82.823158 345.914
-37.559383 82.775047 346.27704
-35.246334 82.909988 345.72089
-34.590252 82.860603 346.09085
-33.935089 82.810989 346.46292
-33.330715 82.816238 346.49734
-32.665192 82.41111 347.40311
-32.062222 82.415642 347.44052
-38.194721 82.155487 346.03928
-37.560833 82.076004 346.32254
-36.904362 82.028084 346.68665
-34.683693 82.200012 345.60693
-33.977192 82.096199 346.31653
-33.306313 82.028755 346.80154
-32.649311 81.861008 347.35248
-31.997843 81.811172 347.72659
-37.562347 81.377243 346.36801
-36.958889 81.383057 346.39651
-34.041035 81.516899 345.88037
-33.286186 81.360062 346.92776
-32.6334 81.310669 347.30185
-31.981871 81.261169 347.67587
-38.223671 81.225677 345.42041
-36.943008 80.833176 346.34393
-36.339363 80.838539 346.37335
-33.270153 80.809326 346.87704
-32.617397 80.760162 347.25116
-32.014275 80.764153 347.28958
-31.410997 80.76786 347.32889
-37.674221 80.584641 345.15463
-37.033493 80.388275 345.6188
-36.376163 80.340874 345.98499
-35.71981 80.293213 346.35309
-33.254181 80.258423 346.82639
-37.730061 79.936272 344.86328
-37.01749 79.837097 345.56616
-36.41275 79.842163 345.59552
-35.703777 79.742462 346.30139
-33.287773 79.759628 346.4379
-32.63438 79.71109 346.81305
-31.378777 79.66568 347.22845
-37.108337 79.389397 344.83789
-36.44973 79.342407 345.20602
-35.791973 79.295212 345.57516
-35.135406 79.247879 345.94434
-33.812931 78.803833 347.21976
-33.271645 79.208031 346.38718
-32.637478 79.011078 346.8595
-31.458916 79.218201 346.50314
-36.48653 78.841576 344.81549
-35.828285 78.79467 345.1846
-35.170895 78.747505 345.55475
-33.796928 78.253517 347.16913
-32.591343 78.259842 347.24478
-31.891352 78.161049 347.95578
-35.258659 78.297295 344.82437
-33.780769 77.70327 347.11743
-33.17804 77.706291 347.15479
-31.923815 77.661453 347.56927
-36.021622 78.241318 343.17853
-33.815033 77.202583 346.72986
-33.161793 77.155502 347.10403
-31.858856 77.060921 347.85452
-30.750175 77.165039 347.26517
-35.434864 77.391197 343.35812
-34.671352 77.243866 344.41406
-33.195507 76.654121 346.71643
-32.542694 76.607162 347.09167
-31.939846 76.609428 347.1319
-30.733959 76.613358 347.21545
-33.209167 76.020348 346.61887
-32.585987 75.891403 346.94824
-31.943586 75.91021 347.17944
-31.340734 75.911942 347.22168
-30.717497 76.061668 347.1647
-35.785007 75.734726 345.12094
-35.075977 75.640511 345.83017
-31.393246 75.260895 346.93219
-28.5424 75.957138 345.1554
-35.163559 75.184517 345.10239
-34.404167 75.042793 346.1517
-30.17606 75.055191 346.43124
-28.501148 75.203278 345.54761
-35.199223 74.67907 344.71048
-34.469284 74.455925 345.716
-31.971876 74.498199 346.25385
-31.50642 74.298935 345.81738
-30.784451 74.352943 346.43744
-28.484564 74.647835 345.49762
-31.489958 73.745239 345.76648
-30.885122 73.746117 345.80862
-28.467947 74.092293 345.4476
-27.816441 74.044899 345.83685
-34.560272 73.573112 344.64096
-32.234962 73.673599 344.11047
-28.4513 73.536621 345.39764
-34.543625 73.018669 344.58896
-33.906868 72.826874 345.06558
-32.239372 72.969292 344.16068
-30.252371 72.980148 345.20923
-29.468565 73.750267 341.64877
-28.456532 72.832611 345.44781
-27.782967 72.934097 345.73691
-41.102936 69.725655 353.7496
-40.445831 69.624397 354.2356
-39.814632 69.644676 354.44702
-39.244133 69.504761 354.57205
-29.404026 73.1418 341.94553
-28.508034 72.174553 345.15689
-41.104523 69.047585 353.79141
-40.46014 69.007523 354.13916
-39.816521 68.967194 354.4888
-39.228043 68.967705 354.52121
-28.491385 71.618393 345.10687
-27.885235 71.617722 345.15494
-27.278961 71.616829 345.20499
-39.910168 68.511513 353.79919
-39.320717 68.512024 353.8306
-38.677429 68.471596 354.18326
-32.948334 71.434998 342.93677
-31.032747 71.410362 343.59732
-28.474525 71.062103 345.05585
-27.868376 71.06115 345.10486
-40.594517 68.053688 353.07724
-39.949127 68.013802 353.42691
-39.304562 67.973724 353.77963
-38.66116 67.933678 354.13138
-32.859509 70.980133 343.12558
-32.293884 70.685432 343.37024
-31.58675 70.596764 344.09592
-30.979715 70.59668 344.13794
-28.550812 70.594337 344.32114
-27.851513 70.504524 345.05481
-39.932949 67.475212 353.37497
-39.288292 67.435432 353.72769
-38.69875 67.435295 353.76105
-38.109234 67.435089 353.79535
-30.311848 70.333939 343.92834
-27.880615 69.991692 344.66141
-39.381325 66.975739 353.03482
-38.790802 66.975594 353.06714
-38.039467 66.856911 354.06284
-30.316774 69.629143 343.97849
-27.909779 69.477722 344.26788
-41.174152 66.615654 352.47388
-40.545826 66.436592 352.91934
-39.955486 66.436493 352.95062
-39.365025 66.436203 352.98187
-38.774502 66.435791 353.01514
-38.130146 66.396202 353.37091
-37.486771 66.356369 353.72763
-30.321793 68.924622 344.02869
-27.938879 68.962654 343.87335
-41.232368 65.974571 352.1951
-40.52943 65.897369 352.86633
-39.883949 65.858566 353.21817
-39.239231 65.819511 353.57196
-38.167309 65.89505 352.99835
-37.470287 65.817009 353.67664
-27.268194 68.359451 344.21756
-40.568787 65.39592 352.49283
-39.88636 65.179802 353.26093
-39.241886 65.14106 353.61469
-38.65237 65.140053 353.64896
-29.632723 67.766266 344.3139
-27.342676 67.885132 343.47739
-38.763744 64.536133 353.05051
-38.065899 64.460136 353.7269
-29.615557 67.208778 344.26279
-27.279669 67.283836 343.77167
-26.62664 67.239784 344.16907
-36.313019 64.091751 353.37207
-29.132439 66.438301 343.77731
-26.731911 66.566795 343.56628
-39.502789 63.883499 351.42923
-38.840137 63.529087 352.30209
-38.1404 63.454319 352.98166
-37.549969 63.452396 353.01779
-36.959446 63.450367 353.056
-36.264286 63.375351 353.73648
-29.11521 65.879707 343.72607
-26.776024 65.949547 343.23865
-24.944387 66.275612 342.84702
-38.231968 62.985954 352.28519
-37.586945 62.947796 352.64398
-36.942715 62.909576 353.00388
-36.299736 62.871166 353.36478
-29.050406 65.281342 344.01855
-24.883272 65.673546 343.14325
-37.623737 62.442188 352.2692
-36.925983 62.368526 352.95276
-36.335339 62.365932 352.99188
-35.153797 62.360477 353.07318
-29.200298 65.026283 342.48645
-28.426201 64.720192 344.0173
-26.650652 64.750031 343.82739
-24.884411 64.902901 343.34763
-24.263607 64.774811 343.70517
-36.962318 61.862629 352.57791
-36.318638 61.824741 352.93979
-35.727806 61.821796 352.97995
-35.137035 61.818832 353.02203
