ply
format ascii 1.0
comment PCL generated
element vertex 1591
property float x
property float y
property float z
element camera 0
property float view_px
property float view_py
property float view_pz
property float x_axisx
property float x_axisy
property float x_axisz
property float y_axisx
property float y_axisy
property float y_axisz
property float z_axisx
property float z_axisy
property float z_axisz
property float focal
property float scalex
property float scaley
property float centerx
property float centery
property int viewportx
property int viewporty
property float k1
property float k2
end_header
3.4384003 76.401894 369.59451
3.5143127 76.413864 369.00546
3.5922089 76.425781 368.41641
1.3772125 77.089462 363.88202
3.0105286 76.66642 363.22986
3.4316101 76.641983 362.6142
1.3278503 77.235901 359.7883
2.8939667 76.935829 355.66409
2.9701385 77.006386 353.32932
4.0897522 76.907349 352.68994
5.0788269 76.548538 352.12646
5.1876984 76.556267 351.5423
5.2975464 76.563858 350.9585
5.4084167 76.57132 350.375
5.5202942 76.578659 349.79184
5.0744629 76.663902 348.65308
5.5266113 76.6353 348.05716
2.6074677 75.900917 370.81281
3.1895599 75.771896 370.1926
3.5190277 75.713188 369.58875
3.5959167 75.725029 368.99985
3.6738281 75.736664 368.41098
2.1330719 76.323067 363.82294
3.0805511 76.128967 362.61261
1.3109131 76.683792 359.76035
3.2153168 76.349388 355.61627
3.1876221 76.410507 353.8714
3.2934418 76.418816 353.28375
3.8419189 76.243843 352.70709
5.0629578 75.999092 352.09882
5.1728058 76.00679 351.51471
5.2826691 76.01429 350.93091
5.3935547 76.02166 350.34741
5.5054169 76.028992 349.76428
5.0605621 76.113022 348.62549
5.5127106 76.084824 348.02957
3.6006165 75.024857 369.58307
3.6775208 75.036392 368.99423
3.9832153 75.158386 368.35199
2.2175446 75.627998 363.819
2.289917 75.795174 362.61343
3.1516113 75.591003 361.99557
2.2631378 75.940811 359.68607
3.1993866 75.798454 355.58844
2.8334351 75.893646 353.86191
4.2686768 75.510521 352.68994
4.3765411 75.518234 352.10437
4.82164 75.49157 351.50311
5.2678375 75.464645 350.90323
5.3786774 75.471992 350.31976
5.4915619 75.479118 349.73663
5.0466766 75.56205 348.59787
5.4988556 75.534325 348.00198
3.6577606 74.491837 368.96661
3.7356415 74.503159 368.37799
3.6117554 74.802109 367.74442
2.1987 75.078934 363.79111
2.3744202 75.099815 362.60974
3.1327515 75.042625 361.96774
3.2236176 75.052696 361.37863
2.4965057 75.183403 359.68393
3.1557922 75.307129 353.81577
4.0243378 75.001595 352.09344
4.806778 74.941414 351.4754
5.2529297 74.914871 350.87558
5.3648376 74.922127 350.29208
5.0327759 75.010971 348.57022
5.1486206 75.017715 347.98703
2.6109772 74.117722 369.60043
3.6369781 73.947105 368.93887
3.7158813 73.958298 368.35025
3.7947693 73.969284 367.76181
2.2677002 74.540154 363.17245
3.0250092 74.484047 362.52902
3.0515289 74.429199 361.38428
2.4786377 74.633018 359.65601
2.5939026 74.772179 354.98343
3.4781342 74.72142 353.76959
3.6721344 74.483765 352.08243
5.0188599 74.459892 348.54251
2.9567871 73.465843 368.97565
3.3648987 73.445175 368.35428
3.7749939 73.424232 367.73398
1.9125824 74.023499 363.17157
3.4277649 73.972488 351.48456
5.2241974 73.815155 350.8201
4.4451599 73.981331 347.95715
3.3450775 72.899536 368.32642
1.8937073 73.473518 363.14352
2.988327 73.386887 362.47305
3.8375854 73.342186 361.24451
3.7511444 73.387482 351.44043
4.8729858 73.297447 350.80774
5.1059265 73.363892 347.90396
1.3804474 72.785515 369.00406
2.3305664 72.446663 368.39423
3.0739288 72.395416 367.74072
3.1548309 72.406113 367.15121
2.9615326 72.639473 365.96106
1.7854767 72.747108 362.58896
3.0131836 72.75341 360.72821
3.5457001 72.586182 360.14041
3.0942078 72.789642 354.93524
3.5353546 72.76577 354.3284
4.5217743 72.778641 350.79541
4.4172974 72.87648 347.90164
1.9785156 71.929855 368.39816
2.7228546 71.879509 367.74411
3.1349792 71.85955 367.12332
3.2178802 71.869888 366.53403
3.300766 71.880142 365.94495
2.4898529 72.06208 362.5199
3.5268707 72.037415 360.11258
3.0782928 72.237923 354.90729
3.8557739 72.183228 354.28162
4.8367462 72.042877 351.36517
5.3893585 71.872177 350.79456
4.1716919 72.310791 349.04269
4.2865295 72.317444 348.45807
5.4165039 72.229256 347.83566
1.9576569 71.382027 368.37024
2.7020569 71.332481 367.71609
3.1151733 71.312805 367.09534
3.1980591 71.323059 366.50601
3.856842 71.319443 362.39862
3.509964 71.488319 360.08447
3.8388824 71.632317 354.25363
4.7886658 71.523697 351.90668
5.2626343 71.315582 351.35016
5.3744965 71.322327 350.76678
4.8325195 71.696182 348.98706
5.0537415 71.555977 348.43356
5.5069733 71.531448 347.83789
1.9368134 70.834007 368.34219
2.6822205 70.785339 367.68808
3.0953827 70.766075 367.06735
3.1782379 70.776199 366.47803
3.3459625 70.796143 365.2999
2.9173584 71.007996 359.51605
3.4866333 71.11161 354.24451
5.1369171 70.758766 351.90604
5.3596191 70.772278 350.73898
5.5984802 70.834015 347.84018
2.3301239 70.267052 367.69141
3.0755463 70.219124 367.03922
3.1584015 70.229164 366.44992
3.2422791 70.239082 365.86081
3.1937103 70.363464 361.79373
3.9532013 70.31385 361.15445
0.72937012 71.116638 356.03644
3.8070984 70.530258 354.1976
4.7856293 70.238312 351.89499
5.3447113 70.222221 350.71115
5.2471924 70.312706 347.82535
2.8805084 69.452919 368.24161
2.9097137 69.567932 366.47629
3.325882 69.549133 365.85706
3.9228363 69.565063 361.17767
1.2367401 70.424057 355.99899
3.7413635 69.874466 354.19983
4.1146698 70.00074 352.41113
5.1061554 69.658768 351.8504
5.3298492 69.671974 350.68329
4.8968658 69.790291 347.81042
3.0770416 68.821083 368.2095
3.8195038 68.775513 367.55746
3.3246307 68.850121 366.44202
3.4943237 68.868874 365.26465
3.4576721 68.987106 361.20078
3.8848572 68.967537 360.58774
1.2253265 69.715714 356.58981
1.6675262 69.694611 355.97791
2.004303 69.818962 355.33939
3.9850922 69.137756 354.19827
4.7637024 69.088051 353.57529
4.871582 69.095016 352.99066
4.9813995 69.10183 352.40637
5.0912476 69.108528 351.82239
5.203125 69.115189 351.23871
5.3149567 69.121628 350.6554
4.9866638 69.19751 348.93536
4.8829346 69.238121 347.78256
3.0562286 68.27446 368.18143
3.7986908 68.229797 367.52939
4.2109222 68.212227 366.91071
3.4745483 68.321739 365.23651
3.5336609 68.446495 360.58459
1.3147888 69.015923 356.58948
2.0953674 68.966942 355.95676
2.1991882 68.974579 355.36725
4.7478485 68.538025 353.54727
5.3721619 68.411667 352.95828
5.5151978 68.386009 351.80701
5.4055023 68.426315 350.65726
4.2969208 68.702103 348.93561
3.4485779 67.710579 367.53256
4.1911163 67.66671 366.88269
3.4546967 67.774384 365.2084
3.1814423 67.924454 360.58157
3.6106567 67.905548 359.96863
3.1355896 67.975853 358.84048
1.637207 68.43383 356.53976
2.0783691 68.413635 355.92856
2.5206146 68.393471 355.31885
3.7319183 68.121834 354.13733
5.7184906 67.652 352.95703
5.8283234 67.658463 352.37421
5.9391937 67.664894 351.79175
4.2829742 68.149338 348.90765
5.0746765 68.100021 348.29648
2.7661133 67.216515 367.56723
3.5116272 67.173363 366.91583
3.2584076 67.382835 359.965
3.1177063 67.425369 358.81232
1.6202393 67.880035 356.51147
2.0614624 67.860245 355.90024
2.5036774 67.840485 355.29056
2.9468994 67.820518 354.68234
3.6009979 67.511391 354.13312
4.7160645 67.437576 353.49115
4.2680664 67.596596 348.87964
2.9326019 66.536621 366.97406
3.6791382 66.494484 366.32401
4.0943756 66.477753 365.70612
2.0235138 67.198601 359.95657
3.1986847 66.882385 358.19589
2.0444946 67.306755 355.87189
2.4867401 67.287376 355.26227
2.9309692 67.267815 354.65402
3.5850677 66.959587 354.10495
4.5790253 66.776215 352.92575
5.5740509 66.592667 351.75275
4.2541656 67.043625 348.85162
2.2078552 66.511055 359.36545
2.746521 66.349739 358.77942
3.1817474 66.331589 358.16763
1.7945709 66.635025 355.89319
2.5762482 66.589966 355.26263
3.5691528 66.407646 354.07675
4.0133972 66.388474 353.47174
5.1138763 66.062233 352.32516
5.2247009 66.068382 351.74161
5.4504089 66.080505 350.5755
3.4641876 65.592552 364.50711
2.0558167 65.84903 358.7984
2.9282532 65.813324 357.57385
2.2234497 65.911224 355.87256
2.3272552 65.91832 355.28348
3.5522308 65.855644 354.04855
3.997467 65.836845 353.44348
5.0979767 65.511902 352.29712
5.2098236 65.518044 351.71356
5.3226624 65.524055 351.1304
3.2745667 64.863998 365.12061
1.7004547 65.321411 358.79376
2.1367035 65.304016 358.18018
2.9103699 65.261749 357.54553
2.2065125 65.357811 355.84424
2.3113556 65.364799 355.25513
2.416153 65.371689 354.66635
3.1988525 65.328476 354.03946
3.9815826 65.285141 353.41525
4.0904083 65.291618 352.82962
4.3584137 65.082542 352.28918
5.1939087 64.967613 351.68555
5.3067627 64.973518 351.10233
4.9803162 65.040092 349.38422
5.769165 64.996246 348.77298
1.4794464 64.740723 365.75174
2.0050964 64.583656 365.15619
2.4562073 64.726967 358.12863
2.8934326 64.709961 357.51715
2.1895752 64.804329 355.81586
2.2944031 64.811218 355.22678
2.4001923 64.818008 354.63803
2.8444824 64.800194 354.0303
4.0597839 64.483292 352.29355
4.8435669 64.44104 351.67438
5.2918854 64.422897 351.07425
5.3009186 64.464088 349.34146
1.8983765 64.025085 365.71844
2.3196106 64.01004 365.09821
3.1631012 63.979767 363.86172
2.8755341 64.158081 357.48871
2.1726227 64.250618 355.78748
2.2774048 64.257431 355.19843
2.383255 64.264198 354.60959
2.8285217 64.246796 354.00195
4.1556854 63.937195 351.68021
4.9414978 63.895744 351.0625
5.3908234 63.877831 350.46332
4.9505157 63.936295 349.32806
1.9839783 63.334084 365.71576
2.070816 63.342293 365.12512
2.8254852 63.304749 364.47668
3.2477264 63.29007 363.85925
2.469635 63.556892 356.92783
2.833252 63.500496 356.33444
2.0268097 63.733833 354.6011
2.9957275 63.590172 353.987
3.7017975 63.509895 353.37866
4.2535706 63.390625 351.06723
5.3759155 63.326988 350.43518
2.1553955 62.651291 365.12262
2.2432251 62.659264 364.53238
2.9989014 62.622734 363.88538
2.0108337 63.179329 354.57266
2.4571533 63.162727 353.96432
3.7913666 62.814629 353.38019
4.2376251 62.838211 351.039
4.6890106 62.82119 350.43857
5.4768524 62.781471 349.82458
5.5937195 62.786865 349.24249
4.7939301 61.764725 364.32709
2.9790497 62.073513 363.8569
1.6774902 62.604935 356.3129
1.9938965 62.624741 354.54416
2.4411926 62.608612 353.93582
4.1119537 62.240196 353.33313
3.8851624 62.3078 351.02725
5.566452 62.087952 349.82748
4.3143311 61.145687 364.94095
5.3905487 61.091125 364.26819
5.8108521 61.077709 363.65543
1.6604767 62.050442 356.28433
2.6837006 61.843292 354.5224
3.4219818 61.731544 353.34232
3.8702393 61.754566 350.99893
4.3216248 61.738468 350.39804
4.2945099 60.598763 364.91241
4.8929749 60.486542 364.30521
5.5661163 60.413906 363.68158
6.088974 60.262192 363.09622
1.9819946 61.474411 356.23413
3.4181061 61.139324 355.05417
3.4050598 61.178543 353.31393
3.8543243 61.201344 350.97061
4.3067017 61.185635 350.36972
4.7600403 61.169857 349.77032
5.2305145 59.742176 364.29297
5.6498718 59.729687 363.67981
6.0701904 59.717133 363.06802
1.286026 60.961964 356.24863
1.7303619 60.947529 355.63718
2.7271271 60.627968 355.06653
3.7266235 60.604797 353.26669
4.1750031 60.589989 352.66284
3.8393707 60.647911 350.94226
4.2917328 60.632717 350.3414
4.0142059 59.530914 364.29779
5.3025513 59.20314 363.67969
5.7229156 59.191002 363.06726
6.1452484 59.178684 362.45624
1.1408081 60.291241 355.68079
2.7102203 60.074478 355.03802
3.035614 60.092274 353.27573
4.1590576 60.037678 352.63443
3.4848633 60.114647 350.93042
4.2767639 60.079674 350.31302
3.3927765 60.181301 348.03412
4.3258362 58.964264 364.24033
4.9542542 58.675507 363.67963
5.3755951 58.663673 363.06662
5.7979431 58.651871 362.45499
0.99655151 59.619102 355.11279
2.8010559 59.526779 354.42172
3.0197144 59.538353 353.24719
3.8055725 59.504837 352.62402
3.4698792 59.560513 350.90198
3.9232788 59.546211 350.30051
3.038208 59.645737 348.01962
4.605896 58.146763 363.67953
5.0272369 58.135357 363.06592
5.4505768 58.123871 362.45364
6.2024994 58.094452 361.81631
2.7841034 58.9729 354.39313
3.0027161 58.984375 353.21863
3.7896118 58.951828 352.59555
3.4539032 59.006306 350.8735
2.9043884 59.084705 348.57693
3.0232239 59.089706 347.99121
3.0355072 59.481457 342.11066
5.4317932 57.577423 362.42514
5.5276184 57.58371 361.84091
1.7494202 58.47488 354.42465
2.547821 58.547459 348.56302
3.0091858 58.533554 347.9628
3.20961 58.820724 342.10291
4.3991547 58.582222 341.54611
2.0187836 57.595608 363.15036
4.4233551 57.081841 362.47861
5.1792908 57.054035 361.83911
5.6046448 57.04314 361.2283
8.4850922 56.706501 357.0722
8.9165649 56.695168 356.47235
2.8599548 57.870567 353.74847
3.4201508 57.863575 352.55646
3.7615967 57.879532 350.79987
2.8743896 57.972446 348.51999
2.9941864 57.977425 347.93433
3.4392548 58.054504 342.69849
3.5700226 58.058537 342.11569
4.3861694 58.025642 341.51801
2.8139343 56.957844 363.06503
3.1987915 56.860607 362.4765
4.8299103 56.523285 361.83725
5.2562866 56.512798 361.22595
8.8218079 55.968647 357.06821
9.6525879 55.982033 356.4306
2.9495087 57.175667 353.75079
3.3988953 57.163609 353.14508
3.5107269 57.168953 352.55908
3.3997345 57.196831 351.40536
2.7396088 57.411339 349.07751
2.8593903 57.416225 348.49149
3.0835114 57.514736 342.6792
3.8996429 57.482922 342.07925
4.3741302 57.468948 341.48984
2.7525482 56.320393 363.06396
3.1799164 56.310371 362.44778
3.2747192 56.316719 361.85992
4.577301 55.997456 361.24991
5.6658173 55.95517 360.58743
8.9813232 55.328423 357.05215
9.7364197 55.302715 356.43152
2.0423279 56.88961 349.0791
2.8444061 56.859898 348.46292
3.0704803 56.956451 342.65088
3.8866272 56.925537 342.05103
4.3610992 56.912163 341.46164
2.3990631 55.785576 363.06317
3.0790405 55.586246 362.47491
3.693924 55.612175 361.83246
4.8890076 55.433212 361.19492
5.3174286 55.423439 360.58441
5.7468414 55.413712 359.97528
8.9645844 54.785038 357.02393
9.7206726 54.760204 356.40332
3.1339264 55.932159 353.13794
2.3679504 56.315346 349.0354
3.0564423 56.397999 342.62259
3.8735962 56.368156 342.02277
4.3491211 56.355164 341.43344
2.6850586 54.964085 362.50198
3.7795868 54.924465 361.832
4.5395813 54.900082 361.19254
5.2995758 54.875694 360.55573
5.7290039 54.866249 359.94662
8.9478149 54.241539 356.99564
9.379303 54.231983 356.39658
2.4407043 55.40955 353.14737
3.1529083 55.696976 342.62979
4.5737762 55.594074 342.02783
3.4271393 54.389366 361.83038
4.700943 54.254913 361.17407
5.7148895 54.176155 360.53006
5.7111511 54.318699 359.91791
5.9155731 54.187073 359.36371
8.9310608 53.697956 356.96732
9.6871948 53.674919 356.34677
3.1009674 54.823669 353.0806
1.3711853 55.36776 347.24658
3.9328156 54.965069 342.61893
5.0877533 54.922356 342.01205
3.4082489 53.839035 361.80151
5.0415955 53.514133 361.16617
5.4700623 53.50576 360.55591
5.7725067 53.521633 358.80576
8.5886536 53.167641 356.96115
9.6704559 53.132133 356.31845
1.3135529 54.718952 347.2449
4.2614746 54.39291 342.58167
5.0747375 54.366673 341.98389
5.1215973 52.971333 360.55301
5.221405 52.976639 359.96884
5.4250336 52.987045 358.8013
8.4650116 52.61861 357.51086
8.5718689 52.623352 356.93274
2.7303925 53.729027 353.04199
1.6421356 54.144577 347.20273
4.117691 53.832329 343.13483
4.2484589 53.836128 342.55341
5.0617676 53.81089 341.95569
4.2370605 52.580284 361.1326
4.7720795 52.435814 360.5502
5.2035217 52.428177 359.94012
5.3043365 52.433357 359.35623
6.0674744 52.412724 358.72424
6.1702881 52.417797 358.14197
8.4482269 52.07423 357.48239
8.5550995 52.078865 356.90427
8.9876251 52.071003 356.30478
8.880661 52.09251 355.17163
1.2844238 53.599686 347.18744
4.103653 53.275478 343.10651
4.2354584 53.279251 342.52509
4.7090302 53.268993 341.93576
4.4216156 51.89922 360.54745
5.1846619 51.879642 359.91135
5.6161346 51.872349 359.30276
6.0486298 51.865086 358.69553
6.1524658 51.870037 358.11325
8.6409454 51.398781 356.90601
8.7478027 51.403191 356.32837
9.2849426 51.260151 355.76035
8.8638763 51.547825 355.14316
1.4912262 53.021721 347.73248
1.9567261 53.012459 347.13171
4.0906219 52.718506 343.07816
4.2224579 52.722275 342.49677
4.6960297 52.712517 341.90747
4.8351593 51.34285 359.9079
5.2676544 51.335968 359.29865
6.1353912 51.181103 358.69672
6.4237823 51.223434 358.08899
8.6189117 50.714489 357.48557
8.8336334 50.723198 356.33041
8.9424744 50.727459 355.75327
2.3787231 52.155334 347.7438
3.7358704 52.174408 343.05933
4.2094116 52.165199 342.46841
4.6829987 52.155937 341.87918
3.72052 50.822723 360.54175
4.1529541 50.816341 359.92999
4.9180908 50.798496 359.29465
5.3525848 50.792034 358.68622
2.0209656 51.609814 347.72934
3.3800659 51.629211 343.04044
4.1963959 51.608028 342.44003
4.6710052 51.599346 341.85083
3.8014069 50.276985 359.92657
4.5685577 50.25993 359.29059
5.0030365 50.253891 358.68167
6.0989532 50.225979 358.02695
8.2586517 49.636078 357.4516
8.5895996 49.765152 356.8205
8.5948334 49.904461 356.21228
8.8072968 49.773594 355.66565
3.3670044 51.07095 343.01196
3.8416138 51.062744 342.42059
4.3171997 51.054462 341.83078
3.1368408 50.00415 360.45026
4.1151886 49.715485 359.87204
4.5496674 49.7099 359.26163
4.9851837 49.704243 358.65271
5.5252991 49.562679 358.07568
7.7115326 49.416531 353.95425
3.3539886 50.512581 342.98349
4.4390259 50.500664 341.22202
2.9426422 49.258068 360.49225
4.096283 49.164848 359.84302
4.5317535 49.159756 359.23264
4.9662781 49.154507 358.62378
8.0052185 48.559425 356.83875
8.1140594 48.56353 356.26031
8.6710815 48.818558 355.57758
3.4727478 49.957809 342.37268
4.0841675 49.954025 341.20148
2.9764709 48.637772 360.47818
4.0783844 48.614109 359.8139
4.5128937 48.609421 359.20358
4.9483948 48.604664 358.59473
5.3849335 48.599831 357.98724
5.8214569 48.594936 357.38129
7.6606903 48.022537 356.8327
8.0962372 48.017773 356.23175
8.5733032 48.099781 355.60446
7.2480316 48.348087 352.77817
2.640274 49.416348 342.94562
3.1168823 49.409649 342.35315
4.0438995 49.252819 341.79041
4.5215302 49.245941 341.20197
2.9575958 48.085453 360.44888
4.2397919 47.970203 359.79657
4.5996094 47.923721 359.20508
5.0351257 47.919361 358.59631
5.4716797 47.91502 357.98895
5.4728546 48.054729 357.37531
5.6852875 47.92374 356.82376
8.0794525 47.471897 356.20306
8.1892853 47.475773 355.625
7.5619354 47.79081 352.7308
2.6272125 48.856682 342.91702
4.8220978 48.536186 341.78171
3.0394135 47.537727 359.83246
4.6863556 47.238327 359.20657
5.1218719 47.234455 358.59799
5.5584106 47.230618 357.99072
5.1085663 47.255337 356.87164
7.5169525 46.945465 355.6394
8.2843323 46.93362 355.01859
7.5450745 47.242531 352.70215
2.8323212 48.01775 342.96194
3.6497803 48.003086 342.36047
4.8090973 47.979408 341.75336
3.3551788 46.977203 359.77756
3.7917175 46.973728 359.16608
4.8770447 46.696598 358.00958
5.3092499 46.713024 355.67691
7.9397125 46.394691 355.01089
7.4897308 46.606754 352.70154
3.5446625 46.294437 359.19296
4.4216156 46.14917 358.58893
4.8591766 46.14616 357.9805
4.9659576 46.150307 357.39694
5.0727539 46.154343 356.81366
5.1815491 46.158417 356.23068
7.3781738 45.86541 354.44522
7.2770691 45.879566 353.30762
7.391861 45.883255 352.72903
5.1951141 46.843067 342.83707
3.7362061 45.611584 358.60913
4.5085144 45.602245 357.97543
4.9480743 45.599659 357.36789
5.3876495 45.597015 356.76184
6.0498352 45.60207 354.99429
4.81604 46.153324 343.43433
5.8887177 46.091377 342.84119
3.8230133 45.063499 357.99454
4.5963898 45.05508 357.36224
5.3697357 45.046669 356.73276
6.7910156 44.767872 355.56747
6.5802307 44.915485 354.39639
7.2443237 44.782387 353.25018
7.3601532 44.785854 352.67163
4.7788391 45.456009 344.02225
5.5884094 45.446056 343.42178
6.0590973 45.442703 342.83383
3.4713287 44.516899 357.9895
4.2456818 44.509396 357.35657
5.3518372 44.496326 356.7037
7.102951 44.213951 355.51697
6.7818146 44.235542 353.82037
7.2274933 44.233612 353.22141
7.3442993 44.237057 352.64291
5.5754242 44.890884 343.39331
6.0461426 44.888031 342.80542
4.5605469 43.952301 357.30392
5.0021667 43.950939 356.69727
7.0861664 43.66568 355.48804
7.6405945 43.667908 354.30948
7.6572723 43.683323 352.59525
4.7518463 44.343491 343.96515
5.5614319 44.335644 343.36484
6.0331573 44.333267 342.77698
4.1020203 43.40155 357.88269
4.5426178 43.400764 357.27469
5.0899048 43.266068 356.70032
5.4258575 43.398975 356.06305
6.4096069 43.126236 355.50241
7.6237793 43.120033 354.28058
7.6414185 43.134731 352.56647
4.7378235 43.787144 343.93655
5.5484619 43.780266 343.33627
5.6822815 43.783474 342.75812
3.7492676 42.853676 357.87747
4.1918793 42.853184 357.26886
6.3917389 42.57679 355.47339
7.4940948 42.568642 354.82993
7.6079102 42.572048 354.25168
7.2947083 42.590115 352.55658
4.7238312 43.230698 343.90793
5.5354767 43.224804 343.30774
5.6693115 43.228004 342.72961
3.8391266 42.30463 357.26309
4.281723 42.304691 356.65536
6.9214783 41.955933 355.42813
7.5809174 41.887863 354.83362
7.6947632 41.891251 354.25555
7.3472748 41.952244 352.55002
4.7108002 42.674133 343.8793
5.5214691 42.669254 343.27917
3.7806702 41.663773 357.26334
4.3704529 41.618786 356.65863
4.8131256 41.619286 356.05252
5.257782 41.619793 355.44781
7.6677551 41.207478 354.83737
7.7815857 41.210762 354.25955
5.0357056 42.113934 343.83984
5.100296 42.12698 342.11313
4.9018707 40.934269 356.056
5.34552 40.935291 355.45145
7.1069794 40.667156 354.27197
7.2339325 40.80616 353.0816
4.6828156 41.560749 343.82196
5.0862579 41.570229 342.08466
5.3286133 40.383926 355.42224
6.3219452 40.316292 354.80402
7.4190216 40.116508 354.22232
4.3288269 41.006378 343.80411
5.0742645 41.013344 342.056
3.7587128 39.967964 356.03207
4.3110504 39.836834 355.45901
5.424469 39.835728 354.81131
6.7433777 39.570213 354.23477
7.3059235 39.575233 353.05734
3.9748383 40.450912 343.78622
4.4496155 40.452103 343.19531
4.9253845 40.453304 342.60599
3.9592285 39.284611 355.45175
4.7407837 39.286049 354.82486
3.9608154 39.892872 343.75742
4.621048 39.803898 343.1882
5.2812805 39.715042 342.62109
3.7191315 38.73457 354.86029
4.5027466 38.736935 354.23413
6.4944916 38.473915 353.61792
6.6923065 38.65279 352.98035
3.6057892 39.335625 343.73953
5.316864 39.065266 343.19238
5.791687 39.067638 342.60455
4.8206635 38.183693 354.18387
6.5954437 37.926506 353.00964
3.5917358 38.77689 343.71066
4.9638977 38.509193 343.17419
4.8027344 37.63076 354.15451
5.58638 37.634987 353.53198
7.3628845 37.641102 352.85406
6.3450775 37.811619 344.86041
6.9196167 37.681492 344.30933
5.6288605 37.953091 343.12469
4.7857819 37.077705 354.12512
5.6751709 36.951317 353.5369
6.22966 36.823952 352.97119
6.3381348 37.007828 351.19394
6.4368286 37.124153 344.86874
6.9066772 37.128132 344.2807
7.0405121 37.131042 343.7052
5.7639771 36.267944 353.5419
6.2127533 36.27269 352.94202
5.9550171 36.565647 345.42953
6.4238586 36.570091 344.84003
6.8927155 36.574596 344.25208
7.0275421 36.577477 343.67661
6.1968384 35.721306 352.91281
5.8092041 36.008183 345.97858
5.9410553 36.011013 345.40073
6.4098816 36.016064 344.81131
6.8787384 36.021049 344.22339
7.0136108 36.023937 343.64798
4.8440094 35.262428 353.5047
6.1799164 35.169849 352.88354
6.2073669 35.175301 351.16534
5.7952423 35.453453 345.94971
5.927063 35.456371 345.37195
6.3959351 35.461929 344.78256
6.8658447 35.467388 344.1947
4.7122345 34.602108 353.51541
5.4980316 34.611549 352.89389
5.858429 34.61977 351.15433
5.4442291 34.895531 345.93405
5.9130859 34.901539 345.34308
6.3819427 34.907589 344.75378
5.1470795 34.054996 352.8844
6.2658691 34.069355 352.24588
5.429245 34.340221 345.90512
5.8991089 34.34671 345.31424
6.3679962 34.353245 344.72498
6.8388824 34.359894 344.13727
5.2275391 33.500732 353.99637
5.9169617 33.513184 352.23581
5.4152222 33.784691 345.87619
5.8851013 33.791775 345.28534
6.0179596 33.794666 344.70813
6.9306641 33.67421 344.14642
5.8766022 32.957588 353.92514
5.5670013 32.955948 352.22568
4.2913055 33.207417 349.34082
5.0631714 33.224499 345.86044
7.0234833 32.988789 344.15564
5.5156097 32.268227 354.53159
6.4012451 32.152294 353.94418
5.6567841 32.272903 352.2319
4.2753448 32.651329 349.31155
4.8429108 32.665985 345.26556
6.5385742 32.427021 344.71429
6.0523224 31.59516 353.93573
6.0786896 31.596384 352.21866
4.029007 31.958403 349.33572
4.8289032 32.109158 345.23654
5.7456818 31.992235 344.67169
5.7033081 31.036829 353.92737
4.1207428 31.271078 349.34335
5.6854248 30.484598 353.89786
4.7998505 30.995417 345.17847
5.668457 29.932152 353.86832
6.4524078 29.949804 353.24783
6.5721893 29.952188 352.66971
3.7516479 30.150595 349.30151
4.2165375 30.160652 348.7037
4.7858124 30.438492 345.14941
5.3184509 29.371645 353.85974
6.4354858 29.398354 353.21832
6.5562897 29.400715 352.64026
4.20047 29.604073 348.67438
4.432663 29.873543 345.133
4.1844788 29.047398 348.64502
4.0784912 29.307407 345.11667
5.7374268 28.276854 353.19995
6.1903229 28.288284 352.60104
4.1694489 28.490498 348.61566
4.7737579 28.590326 345.11774
5.5081787 27.716681 352.61127
4.1534119 27.933628 348.58624
4.9432983 27.949589 345.1102
5.8243256 27.17346 352.56171
4.1383972 27.376631 348.55682
4.481308 27.512579 345.05505
5.4742584 26.609791 352.552
5.9302063 26.622849 351.95349
4.1223755 26.81966 348.52734
4.5035553 26.911407 345.03888
5.124176 26.045029 352.54221
5.9142609 26.069784 351.92386
4.1073608 26.262466 348.49783
4.5610352 26.267191 345.03586
5.8983002 25.516523 351.89423
4.0913239 25.705194 348.46838
4.8861694 25.721102 344.99377
5.2120056 24.938837 351.90332
3.8733063 25.218643 345.54794
5.1960449 24.384478 351.8736
3.7220612 24.577757 348.42542
3.702652 24.565466 345.5538
5.849411 23.856556 351.80515
4.1520233 23.905165 348.418
4.2144165 23.938631 345.53275
4.6164856 23.250122 351.27283
4.2438354 23.220188 348.42676
4.3260193 23.344301 346.08603
3.927063 22.665731 351.28094
4.2675476 22.414534 350.776
3.8648682 22.899748 346.03156
3.6504822 22.146925 348.37296
4.1833801 22.196768 346.04102
4.0197906 21.554289 350.64069
3.85849 21.532768 348.35452
4.0514526 21.527229 346.05176
4.110611 20.871258 350.6488
3.842453 20.974701 348.32492
4.24086 20.982218 346.58673
3.8273926 20.416611 348.29529
4.00177 20.479353 346.54495
4.1506042 19.87562 348.24927
4.2117615 19.866013 346.52783
3.493866 19.039722 350.63498
4.1355896 19.317932 348.2196
4.0629272 19.305286 347.07712
4.1967163 19.307816 346.49838
3.6055756 18.483883 350.02448
4.493042 18.639414 347.07187
3.5885315 17.925947 349.99463
4.1044922 18.20228 348.16022
3.5725098 17.367886 349.96478
4.1963501 17.519077 348.16977
4.2324982 17.37932 347.06799
3.2171173 16.789885 349.95316
3.6105194 16.796598 348.21243
4.7593231 16.858477 347.58517
3.5404053 16.251568 349.90503
3.5944519 16.237936 348.18271
4.7443085 16.301388 347.55557
3.1849823 15.672374 349.89334
4.2570953 15.720923 348.12006
4.7292786 15.744199 347.52597
3.1689301 15.113517 349.86337
3.7709045 15.139386 348.68582
4.2420654 15.163039 348.09033
3.152832 14.554564 349.83344
3.754837 14.580926 348.65601
4.2269897 14.605157 348.06061
3.4761505 14.017951 349.78525
3.7397919 14.022448 348.62619
3.4601135 13.459398 349.75525
3.7237091 13.463888 348.59634
3.8575134 13.46632 348.01746
3.3433533 12.756182 349.20316
3.8155975 12.782062 348.60648
4.287796 12.807878 348.01141
3.435257 12.074157 349.21317
3.9074554 12.100533 348.61667
4.7171173 12.151059 348.00534
3.4191895 11.5153 349.18326
3.8913727 11.542172 348.58688
4.3646545 11.56916 347.9921
3.0636902 10.931018 349.17108
3.8763275 10.983793 348.55707
4.3486023 11.011297 347.96237
3.1813812 10.37362 348.56165
4.3335419 10.453315 347.93262
3.1653137 9.8140612 348.53174
4.318512 9.8953342 347.90286
3.4897003 9.2813034 348.48459
4.3034515 9.3372736 347.87305
3.4746094 8.7220888 348.45468
4.2884064 8.7791414 347.84329
3.6443787 8.0912876 348.44623
4.3803253 8.0997219 347.85434
4.8556366 8.1300888 347.26175
3.9979248 7.3898706 348.45938
4.4722595 7.4206591 347.86545
4.9476013 7.4515791 347.27301
4.4571838 6.8627577 347.83572
4.9325867 6.8942327 347.24338
3.9678192 6.2728939 348.39969
4.4421692 6.3047943 347.80597
4.9175262 6.3368368 347.21375
4.0597382 5.5942659 348.41116
4.7863312 5.5197802 347.85211
6.146225 127.34116 360.83774
5.3833923 127.76177 360.73718
-0.54322815 129.19115 360.1333
6.4939117 126.77251 361.30621
6.4382477 126.5518 360.51324
0.21678162 128.20448 360.22849
0.089157104 128.14061 359.4816
6.8687286 125.82328 360.92245
5.9680328 126.18201 360.08878
3.9488983 126.54242 359.68735
0.54527283 127.42402 358.95184
7.3019867 125.12202 360.40091
6.3433685 125.23273 359.70697
3.9285889 125.98976 359.67999
0.7746582 126.58144 358.72473
7.1958313 124.70599 361.38324
7.0547638 124.64918 360.65121
6.5510559 124.60825 359.44299
4.4574432 125.12242 359.09644
0.91691589 125.90483 358.55673
7.2616272 124.02471 360.38641
7.1226654 123.96784 359.65503
1.1343689 125.27121 358.28842
6.9944916 123.46754 360.68362
7.4122009 123.18549 359.33365
3.9077148 123.94904 358.80026
7.3879089 122.60761 360.25583
7.4756012 122.47794 359.26791
4.1194916 123.3215 358.53473
7.8195343 121.91339 359.73544
3.6363068 122.91764 359.04221
3.5056305 122.85971 358.30356
7.7993622 121.36573 359.72818
3.0011749 122.37054 358.858
7.3279266 120.96166 360.23325
7.1889496 120.90579 359.50183
3.1750031 121.5773 358.68536
7.3069763 120.41302 360.22665
7.3001404 120.22826 359.37067
6.6703186 120.31811 358.28598
1.2528076 121.12745 361.46808
7.2967987 118.47769 359.30905
7.2576752 117.84669 359.34824
8.5569916 117.25903 358.65619
7.2373962 117.29804 359.34091
3.2891998 118.1855 358.37854
-0.86763 117.12852 349.23068
-1.2095642 117.13721 348.73996
-1.3138428 117.07773 348.00076
7.2171173 116.7494 359.33356
3.4824524 117.47959 358.15988
-0.94639587 116.68358 349.25912
-0.85722351 116.38876 347.49387
6.5179749 116.40214 360.09558
6.6083221 116.28246 359.10461
-1.3137512 116.4109 350.44638
-0.66610718 115.95608 348.96072
-0.8740387 115.8381 347.48294
6.361084 115.79962 359.35355
6.2268982 115.74771 358.61841
5.8659821 115.7616 358.1398
-0.57731628 115.46284 349.69028
-0.68363953 115.40441 348.9505
-0.89086914 115.28744 347.47198
6.113205 115.3168 359.60324
-1.1304932 115.15112 350.22073
-0.56140137 114.72366 348.819
-0.96260071 114.48174 347.59677
6.0935211 114.76614 359.59506
-3.997406 118.41029 364.18399
-1.0866394 114.49072 350.172
-0.98008728 113.93008 347.58655
5.6173859 114.34613 360.10257
6.3398285 113.78284 358.47894
6.2067413 113.73089 357.7449
6.0753174 113.67889 357.01114
-1.1042175 113.93707 350.16171
-0.97221375 113.81355 349.16846
5.5969391 113.79449 360.09506
6.3201752 113.23319 358.47083
6.1870575 113.18224 357.73676
6.0556335 113.13025 357.00296
-3.608017 116.87495 363.77414
-1.8953552 114.17659 352.57184
-1.4355316 113.82703 351.26123
-1.1212006 113.38342 350.15063
-1.227005 113.32601 349.40848
-1.2388763 113.10947 348.60971
-1.2502594 112.89188 347.81284
5.4423218 113.19197 359.34961
5.939743 112.69643 357.98419
5.5812836 112.7093 357.50375
-1.234375 113.38393 352.74091
-1.2039642 113.19959 351.87265
-1.3614197 113.11129 351.19354
-1.5173798 113.02296 350.5145
-1.1642456 112.39671 348.54248
-1.504303 112.40437 348.05078
7.0027924 112.1081 359.41187
6.6410065 112.121 358.93381
5.6503906 112.57651 359.08463
5.3329163 112.22351 357.75156
-3.4046783 115.67071 363.48779
-1.2528229 112.82829 352.7312
-0.94082642 112.38676 351.61685
-1.2872162 112.39655 351.12589
-1.1564789 112.27609 350.12994
-1.4994965 112.28381 349.63812
6.7560425 111.62125 359.66129
7.0728607 111.44675 358.41492
5.3131561 111.67286 357.74335
-3.5261536 115.04102 363.61862
-1.2712708 112.27263 352.7215
-0.95918274 111.83211 351.60721
-0.83091736 111.71371 350.61163
-1.6141205 111.66617 349.75732
-1.6735535 111.41863 349.02142
6.9619446 111.00882 359.39688
7.0524139 110.8981 358.40744
6.7800903 110.75399 357.87109
6.5088959 110.60985 357.33444
-1.0076752 111.46082 352.46472
-0.97686768 111.27745 351.5968
-0.84860229 111.16004 350.60126
-1.6802521 111.08051 349.81177
6.7151794 110.52197 359.6463
-1.1228485 110.84013 352.58624
-0.99528503 110.7228 351.58713
-0.86631775 110.60639 350.59082
-0.46759033 110.13372 348.52231
6.6946869 109.97132 359.63876
6.559906 109.92243 358.90305
-0.90385437 110.22242 352.3222
-1.0130005 110.16814 351.57669
-0.76202393 109.84026 350.50543
-0.57000732 109.61806 349.47363
-0.43988037 109.50252 348.48416
6.4485931 109.48247 359.88745
6.4014587 109.2776 359.09302
6.2672577 109.22868 358.35788
6.2229919 109.02374 357.56488
1.3971405 111.0363 361.84183
-1.1590729 109.72883 352.56604
-0.70198059 109.39331 351.25696
-0.48098755 109.11879 350.2049
-0.11643982 108.94321 348.96368
0.013290405 108.82964 347.97659
6.3356323 108.52304 358.29144
6.2032318 108.47508 357.55667
-1.1775513 109.17317 352.5563
-1.2871246 109.11991 351.81039
0.11157227 108.31988 349.57294
-0.041641235 108.23344 348.89664
-0.1469574 108.18098 348.15775
5.5901947 108.51273 359.90799
6.1834259 107.92545 357.5484
-0.40930176 108.06482 350.92755
0.37368774 107.51703 349.32031
0.032562256 107.52467 348.83035
0.16218567 107.41312 347.84311
5.5696564 107.96108 359.90036
5.5253448 107.7572 359.10312
5.7094574 107.49345 358.05106
2.652832 106.70061 350.2688
-0.23806763 107.295 349.88654
-0.32452393 106.97966 348.32892
5.4622498 107.00164 358.29865
2.3950958 106.46874 351.32083
2.8649902 106.09397 350.01059
-0.3421936 106.42799 348.31857
3.3939819 107.95798 363.05341
3.3298187 107.95938 362.20428
2.4150543 107.68056 360.6311
3.0743713 105.64397 351.47168
2.9596252 105.59567 350.73611
2.8466339 105.54531 350.00092
1.9333954 105.61757 349.27335
-0.35986328 105.87634 348.30817
3.6243896 107.13343 362.82437
3.738327 107.11329 361.76749
4.006958 106.6596 359.74722
2.1604309 107.18279 360.88547
3.056015 105.09533 351.46201
3.0332489 104.88992 350.66925
2.919632 104.84157 349.93481
2.1913452 104.82277 349.02356
-0.37687683 105.32468 348.297
3.8156281 106.41547 362.61081
4.0222168 106.25542 361.48602
2.1027527 106.41929 360.06946
2.807312 104.60165 351.70248
2.9926758 104.13783 349.8688
2.311203 104.15203 348.89392
4.4569702 105.5317 361.90225
4.0916595 105.54276 361.41928
3.5459137 105.86887 361.05417
3.9261017 105.34742 358.92947
1.344101 105.83241 360.03766
3.0184937 103.99603 351.4433
2.9750519 103.58916 349.85843
2.8638611 103.54077 349.12363
2.5239716 103.54735 348.63632
3.8398132 105.04493 361.67358
3.7064972 104.99915 360.92801
3.2524261 105.16723 360.50262
3.444458 104.90749 359.4386
3.0921936 103.29128 351.37653
3.0696106 103.08887 350.58395
2.9566956 103.04052 349.84879
2.5063324 102.9997 348.62595
2.7197723 102.7421 347.59027
3.5879974 104.5451 361.92792
3.6857758 104.44352 360.92023
3.5542145 104.39771 360.17505
3.6548462 104.29601 359.17163
1.052597 104.62138 358.52216
3.1652679 102.58653 351.31049
3.051239 102.53922 350.57425
3.1679382 102.43787 349.59109
3.2866364 102.33645 348.60986
3.5678558 103.98846 361.91931
3.2025604 103.99953 361.43497
3.3020477 103.89793 360.42758
3.6347198 103.74037 359.16306
1.0324707 104.06375 358.51361
3.1468811 102.03689 351.30081
3.262085 101.93658 350.3161
3.51651 101.71616 349.21384
3.4511719 101.48059 348.48892
3.1130219 101.48714 348.00195
3.181778 103.4429 361.42712
3.0499878 103.39812 360.68027
3.7054596 103.03069 359.09619
2.8983307 101.5412 351.54144
2.7846069 101.49489 350.80408
3.7725983 100.92738 348.96506
3.4335327 100.93392 348.47858
3.1609192 102.88527 361.41928
3.0291443 102.8405 360.67239
2.8990479 102.79667 359.92581
3.1858063 102.38482 358.8031
2.7661743 100.94524 350.79434
3.7542725 100.38072 348.95538
3.4159088 100.38728 348.4682
2.878891 102.24004 359.91718
3.5077972 99.886055 349.19241
3.3975372 99.840118 348.4585
2.7645721 101.61526 360.04379
2.9135895 101.32741 359.04575
3.490097 99.338196 349.18198
3.3798523 99.292969 348.44809
2.1114349 101.13255 360.77051
3.1248474 100.71891 358.77823
3.6092224 98.671562 349.05301
3.5900574 98.695221 348.19211
5.5488739 99.699669 360.5556
3.0015259 100.25901 359.77478
3.1046906 100.16328 358.76962
2.7661896 98.393959 349.9057
5.7553101 99.095268 360.28891
5.5313721 99.207573 359.60608
2.8531036 99.659508 359.01996
3.6636353 97.645561 348.90533
3.4458313 97.557625 347.43875
5.7345581 98.54213 360.2811
5.6014404 98.501091 359.53992
3.4229736 99.042244 359.23859
3.064209 99.051506 358.75226
3.7567291 97.141617 349.62936
3.7382507 96.94558 348.83945
3.582428 96.867798 348.17035
3.5198212 96.85865 347.37363
5.4865417 98.039185 360.53214
5.5806274 97.948257 359.53204
4.0784454 98.248146 358.50131
4.1506195 96.240463 349.26151
3.8122406 96.24601 348.77432
3.4748077 96.251343 348.28665
3.1375885 96.256584 347.79919
2.8020325 96.261497 347.31058
5.1038818 97.494911 360.04196
4.3854523 97.513313 359.07263
4.0268707 97.52224 358.58789
4.1329041 95.693504 349.25104
3.4563751 95.704193 348.27689
3.119873 95.709229 347.78873
2.7842865 95.714142 347.30011
2.8539124 99.630318 373.14117
2.8912659 99.729645 372.09637
2.3114929 99.668755 370.92407
4.855423 96.990173 360.29263
4.9087372 96.643074 359.43243
4.3645782 96.958977 359.06473
-0.18556213 97.728523 357.83743
4.1341858 95.340263 350.0311
4.1144257 95.146454 349.2413
3.7760925 95.15181 348.75409
3.4386444 95.156952 348.26642
3.1021118 95.16198 347.77826
2.7665558 95.166695 347.28961
2.461792 95.342827 346.70947
3.2984467 98.95842 372.58273
3.3814545 98.867645 371.5491
3.2321167 98.828789 370.79178
3.0845795 98.789795 370.03482
4.6062927 96.484329 360.54401
4.2080841 94.640686 349.96588
4.0959625 94.599312 349.23151
3.7576141 94.604561 348.74429
3.420166 94.609604 348.25662
2.748764 94.619232 347.27911
1.8504791 94.675079 346.54532
3.835434 98.133156 371.96332
4.0094757 97.888443 370.87152
3.2637634 98.000366 369.85483
3.0090027 98.030502 369.20947
3.9942932 95.986694 360.31201
4.1950684 95.810219 358.30463
4.4167786 94.046791 349.70837
4.0774689 94.052063 349.22168
3.7397919 94.057205 348.73376
3.402359 94.062248 348.24609
2.7309723 94.071594 347.26859
3.9049225 97.412315 371.89526
3.9861908 97.324226 370.86548
3.8378448 97.286339 370.10919
3.4579163 97.298698 369.62576
3.0787964 97.31086 369.14175
4.07341 95.343315 359.29861
4.0379944 95.150833 358.49603
3.6817932 95.158951 358.00943
4.1710815 93.545296 349.94626
4.0596619 93.504807 349.21115
3.721283 93.509857 348.72394
2.5669403 93.224693 346.65894
3.8816376 96.847107 371.88919
4.1026154 96.639999 370.72687
3.9085388 96.567467 370.04089
3.435257 96.734596 369.61896
3.0375977 95.132179 360.38934
3.7544556 94.451324 357.94302
3.6975861 93.088142 350.43259
3.8135376 93.002731 349.44858
3.7027435 92.962318 348.71408
3.59375 92.921967 347.97998
2.6953278 92.976196 347.24747
3.8575134 96.281799 371.88382
3.9785309 95.848816 369.9733
4.0631561 95.762794 368.94684
3.2410126 94.45974 361.07028
3.1107178 94.421043 360.32202
3.2128754 94.335083 359.31442
1.7128754 93.65976 353.20129
3.8174133 92.423508 350.30292
3.8887482 92.303528 349.38327
3.7779846 92.263718 348.6488
3.6690369 92.223763 347.91473
3.655014 92.032814 347.12634
3.8341675 95.716393 371.87769
3.6842804 95.679756 371.11987
3.9551697 95.28511 369.96722
4.0398102 95.199989 368.9408
3.0896759 93.863625 360.31396
3.3314819 93.661148 359.18069
3.3444061 93.505226 358.30899
1.788147 92.953072 353.13464
4.6436157 91.473274 348.57858
4.3685455 94.899849 371.26132
4.3123474 94.709526 370.4437
3.9325104 94.721191 369.96039
4.0171814 94.636986 368.93399
3.0277405 93.045677 360.44852
3.5897827 92.870575 358.92142
3.4632721 92.832565 358.17554
1.5370178 92.444481 353.37848
4.9619446 90.922409 349.05585
5.0760193 90.840736 348.0784
4.7408905 90.8451 347.59161
4.4066772 90.849388 347.10434
4.4384613 94.18129 371.19363
4.2889862 94.145615 370.43759
3.9091797 94.157181 369.95428
3.9944763 94.073875 368.92712
3.1089783 92.405098 359.43158
3.2125549 92.322189 358.42535
5.0566101 90.414253 349.77866
5.1691742 90.333534 348.79971
5.058197 90.29538 348.06781
4.7230377 90.29966 347.58102
4.388855 90.303825 347.09375
4.1832733 93.663918 371.46164
4.6359863 93.417137 370.02786
4.4429779 93.346077 369.34296
4.0649109 93.356987 368.85999
2.3766022 93.636726 368.00671
2.729538 91.855644 358.93616
2.1280975 91.787315 356.94998
5.0380402 89.867508 349.76874
5.3757019 89.745651 348.54422
5.0396271 89.749939 348.05792
4.704483 89.754211 347.57114
4.370285 89.758186 347.08386
4.3915863 93.052582 371.1813
4.430542 92.710556 370.30261
4.5133209 92.629799 369.2757
4.1360931 92.640503 368.79214
3.3847198 92.6614 367.82251
2.3537903 93.071922 367.99976
3.1711731 91.209938 358.40848
1.8755035 91.275078 357.19934
5.2447357 89.278946 349.51208
5.4501953 89.051056 348.47961
5.1142426 89.055244 347.99344
4.7792358 89.059219 347.50674
4.4458618 89.063072 347.01889
4.3131866 92.300125 370.35736
4.4899597 92.066887 369.26962
4.1133728 92.077499 368.78531
3.3620148 92.098091 367.81564
2.987854 92.10807 367.32953
2.6439362 92.292313 366.74417
3.1507721 90.653603 358.39969
2.890686 90.50869 357.85291
2.1828461 90.521912 356.87442
5.0001221 88.77372 349.74963
5.5247803 88.356766 348.41504
4.8540802 88.364609 347.44244
4.2359467 91.548637 369.53452
4.0899506 91.51429 368.77911
3.7142029 91.524582 368.29422
3.3392944 91.534576 367.80878
2.9651642 91.544563 367.32266
2.8246002 91.509399 366.56705
2.9649048 89.800629 357.78668
2.610672 89.807129 357.29782
2.4888153 89.770752 356.5509
2.8734436 89.908516 355.15033
4.9814911 88.226677 349.73965
4.8697052 88.190285 349.00558
4.0671692 90.95108 368.77222
3.6914368 90.961189 368.28729
3.547699 90.926872 367.53275
2.8018188 90.946098 366.56009
1.23703 89.76828 358.70181
1.2064362 89.347458 354.37912
4.7375336 87.719864 349.97647
4.7626038 87.571198 349.12384
4.6084137 87.498589 348.45352
4.5919495 87.313576 347.66696
3.6991272 87.360275 346.93442
3.7631683 90.24498 368.22003
3.852066 90.167564 367.19498
2.9207001 90.266304 366.42245
2.0101318 88.930382 357.85611
2.4487762 88.658798 356.53259
0.81642151 88.723434 354.82382
3.165329 87.712112 351.57211
4.6833649 86.803192 348.38934
4.3483734 86.806778 347.90131
5.1833496 86.870857 346.05621
4.2969971 89.443413 367.61285
3.9238434 89.452759 367.12775
3.5515289 89.461998 366.64203
3.1799927 89.470932 366.1557
2.5502167 88.137856 357.27066
2.6598511 88.061493 356.2662
1.6104736 88.078407 354.79449
3.1199799 87.309906 352.42447
3.6026001 87.081116 351.06262
4.1345367 86.66777 349.71695
4.3297577 86.260139 347.89136
3.9957428 86.263527 347.40283
3.6626434 86.266785 346.91385
3.331192 86.269844 346.42371
3.7161713 89.118469 368.20758
3.9010773 88.89035 367.12082
3.7596436 88.857185 366.36713
3.6205444 88.823761 365.61292
2.2981262 87.622101 357.52054
2.592453 87.134605 354.65186
3.2401886 86.644684 352.29376
3.583786 86.530769 351.05249
4.253952 86.007233 349.5882
4.0997009 85.935562 348.91644
4.3118439 85.713387 347.88068
3.9777985 85.716675 347.39218
3.7670288 85.646103 345.92548
2.6678009 88.875824 369.34802
3.8783112 88.327843 367.11389
3.7368164 88.295074 366.36014
3.5984039 88.262062 365.60522
2.7397156 86.984444 356.99567
3.3362579 86.127373 353.02505
3.3605499 85.980278 352.16315
3.2033234 85.908714 351.487
3.0912476 85.87413 350.74701
4.1755981 85.239044 348.85178
4.5188904 85.1287 347.62573
4.4120331 85.094093 346.89233
3.7490845 85.099953 345.91476
2.6448822 88.309715 369.34097
3.3919525 87.847733 367.64682
3.7146759 87.732773 366.35242
3.5756226 87.700157 365.59824
2.719223 86.428116 356.98676
3.3166809 85.575035 353.01559
5.618515 84.605675 349.81131
3.0505829 85.246422 351.67288
3.1670227 85.174004 350.68222
4.5001984 84.582352 347.61572
3.2773285 84.628609 346.39166
3.3690948 87.283928 367.6398
3.786972 87.019043 366.28568
3.6485901 86.986931 365.53079
2.1761322 86.940048 364.54132
1.7130585 87.09967 364.11124
2.794754 85.721527 356.92035
5.9384766 84.055191 350.28735
5.5997925 84.059036 349.80127
5.4872742 84.025856 349.06784
2.6903839 84.698547 351.17261
4.5907288 84.069374 348.33871
4.256485 84.072571 347.84998
3.2586517 84.081261 346.38165
-1.322052 84.733635 345.24304
3.0244598 86.832291 368.93234
3.3462372 86.720024 367.63278
3.8599548 86.305717 366.21823
3.7209625 86.27401 365.46414
2.5213776 86.369255 365.02286
2.154007 86.376938 364.5336
2.4860535 86.264778 363.24567
3.099884 84.977081 356.59738
2.2821198 84.953995 354.86972
5.6946716 83.544846 350.52573
5.805191 83.475998 349.54465
5.6923523 83.443298 348.81235
4.2377319 83.525528 347.83994
3.572052 83.531281 346.86105
-1.3394318 84.180695 345.23157
3.0908966 86.195717 367.89639
3.6988373 85.712196 365.45645
2.7311859 85.766884 364.7482
2.6940613 85.583847 363.93259
2.5606537 85.55201 363.17841
3.0794067 84.421356 356.58847
2.5404663 84.286079 354.57739
5.6751862 82.997612 350.51636
6.1035156 82.7472 349.23462
5.8851624 82.775688 348.60291
4.3140564 82.830894 347.77567
3.9808807 82.833664 347.28659
3.6493073 82.836311 346.79636
-1.2630157 83.662857 345.96448
-1.1223602 83.590927 344.97391
3.2744598 85.416183 367.71786
3.2560577 85.409744 366.80151
3.6759338 85.150291 365.4494
2.7083435 85.204094 364.74118
2.866745 84.801178 362.84656
3.2884521 83.828384 356.32285
3.1239929 83.433792 353.97476
5.6564026 82.450272 350.50626
6.1785278 82.054901 349.17044
5.8425293 82.057976 348.6842
5.5074463 82.061058 348.19751
4.058075 82.139114 347.22183
-0.28681946 82.735687 345.84702
-0.94772339 82.923439 345.65158
-0.80729675 82.8526 344.6622
3.4225616 84.626404 365.70935
2.686142 84.641289 364.73343
3.0760498 84.202309 362.57416
3.268631 83.273056 356.31317
3.1042786 82.880058 353.96518
5.6368561 81.90274 350.49683
6.1590881 81.509254 349.1611
5.8238068 81.512238 348.67416
5.4887238 81.515221 348.18747
3.5862579 81.661293 347.70291
-0.30488586 82.183647 345.83621
-0.63305664 82.185432 345.33948
-0.72729492 82.151604 344.59741
3.4969635 83.913254 365.64191
3.359848 83.883209 364.88681
2.9925842 83.890282 364.39911
2.7237091 83.74678 363.85065
3.0538788 83.641701 362.56644
3.3437805 82.568764 356.24786
3.1283264 82.686195 355.55792
3.0845184 82.326233 353.95557
5.7551575 81.246231 350.36835
5.5991058 81.17778 349.6976
5.8043518 80.966408 348.66479
5.4699707 80.969284 348.1774
3.2027893 83.207787 365.08682
3.0670776 83.177811 364.33176
2.7015381 83.184555 363.8429
3.0324249 83.080887 362.55798
2.8410645 81.904541 355.94772
5.6053009 80.902214 352.19791
3.3895721 81.589134 353.63669
5.6743469 80.484451 349.63367
5.5619354 80.453972 348.90033
5.4512177 80.423241 348.1673
-0.34039307 81.079353 345.8139
-0.99569702 81.082512 344.82001
3.0448914 82.615608 364.32394
2.6793213 82.622154 363.83508
3.1513977 82.408348 362.42322
5.5856781 80.35318 352.18842
5.6941528 80.289848 351.20248
5.5788574 80.25985 350.46768
5.3187714 79.940338 349.13657
5.208374 79.910118 348.4024
1.0948792 80.453812 346.79541
0.7646637 80.455711 346.30081
0.43539429 80.457489 345.80579
-1.0137482 80.530167 344.80923
2.3055878 82.670425 366.81619
2.7311401 82.418228 365.45975
2.657074 82.059753 363.82733
3.4122772 81.624977 362.1608
3.2583771 80.724373 355.41855
5.7902069 79.771095 351.92957
5.7692719 79.595535 351.13849
5.654007 79.566032 350.40372
5.6360016 79.390495 349.61414
5.1895447 79.36338 348.39227
4.5228577 79.368225 347.41522
1.1746063 79.754921 346.73035
0.84449768 79.756706 346.2359
0.28619385 79.611969 345.19113
3.0524597 81.671555 366.03973
3.0371246 81.669334 365.125
3.2302704 81.455673 364.04349
3.0092926 80.202919 355.66443
5.5457153 79.254814 352.17014
5.8444519 78.901512 351.07449
5.729248 78.872513 350.33978
4.8311462 78.910072 349.61053
4.7205811 78.880585 348.87479
5.0620575 78.786987 347.64828
5.1794281 78.725441 346.67117
0.59614563 79.05957 345.67554
3.478714 80.950104 365.54654
3.3431854 80.921959 364.79022
3.5363312 80.71006 363.71021
3.1723785 80.716179 363.22156
2.9959717 80.649567 362.53619
3.217926 79.614143 355.39978
5.526062 78.705399 352.16052
5.7103729 78.324875 350.32959
4.8122559 78.36174 349.60034
5.375885 78.238205 348.12668
5.3624115 78.064018 347.34015
5.1612854 78.179909 346.66028
3.4446411 80.299156 365.58807
3.9751282 79.993988 364.13181
3.6104584 80 363.64383
3.4776001 79.972145 362.8902
3.4264984 79.026154 355.13507
5.6018982 78.01017 352.09583
5.5808411 77.836418 351.30463
5.6907501 77.777161 350.32007
5.2426147 77.751305 349.09656
5.5470734 77.401657 348.00946
5.4382935 77.373184 347.27689
0.79069519 78.103081 346.20255
0.46231079 78.104553 345.70697
0.36628723 78.074249 344.96597
3.8592072 79.493263 365.14441
3.7228546 79.465996 364.39008
3.5882111 79.43869 363.63602
3.4553528 79.41124 362.88235
3.3241425 79.38356 362.12888
3.4065552 78.471336 355.12527
5.0362396 77.668251 352.64224
5.5611725 77.287689 351.29507
5.6710968 77.229324 350.31055
5.559021 77.201363 349.57474
5.4473419 77.173378 348.8407
