ply
format ascii 1.0
comment PCL generated
element vertex 1631
property float x
property float y
property float z
element camera 0
property float view_px
property float view_py
property float view_pz
property float x_axisx
property float x_axisy
property float x_axisz
property float y_axisx
property float y_axisy
property float y_axisz
property float z_axisx
property float z_axisy
property float z_axisz
property float focal
property float scalex
property float scaley
property float centerx
property float centery
property int viewportx
property int viewporty
property float k1
property float k2
end_header
-6.6643157 78.174438 348.44894
-6.9962425 78.175171 347.94189
-8.8090248 78.241043 346.41806
-10.78703 78.370163 345.90247
-12.499878 78.115936 340.97998
-12.171138 77.494896 337.52057
-5.8277354 77.669212 350.9736
-6.1650786 77.670418 350.46811
-8.9911556 77.73867 347.42538
-10.803618 77.802391 345.89063
-12.353855 77.832718 344.08932
-5.9390078 77.074646 350.19986
-9.0078068 77.172112 347.41342
-9.089119 77.14122 346.64798
-11.973789 77.296745 345.36041
-12.622263 77.295555 344.33044
-14.73463 77.353867 342.25278
-12.140274 76.401299 338.25366
-6.4441633 76.570808 350.70325
-6.522119 76.361794 349.12015
-6.6113658 76.332298 348.35806
-9.3540201 76.605766 346.89117
-12.637383 76.726479 344.31723
-10.338978 75.816185 340.55823
-10.654408 75.814774 340.04636
-12.153605 75.837608 338.23935
-6.4616551 76.005051 350.69193
-6.5249195 75.618698 348.29117
-12.005587 76.158501 345.33524
-12.652535 76.157196 344.30402
-10.392632 75.434204 341.36014
-10.35393 75.253189 340.5452
-10.668596 75.251663 340.03265
-14.764042 76.212906 342.22583
-6.7239895 75.468689 350.93909
-12.020798 75.589211 345.32196
-12.345173 75.588638 344.80685
-10.444358 75.050407 342.16254
-10.300967 74.720131 341.29272
-10.368879 74.69001 340.53214
-10.682784 74.688492 340.01898
-12.121635 74.740868 338.97354
-7.0773592 74.902946 350.41953
-7.062943 74.725067 349.59882
-7.15166 74.697006 348.83441
-12.036743 75.019936 345.30939
-12.361087 75.019257 344.79431
-10.246872 74.185913 342.04147
-10.315947 74.156433 341.27969
-10.383128 74.126816 340.51837
-10.697733 74.125313 340.00592
-12.639122 74.233078 339.45627
-12.232522 74.508614 346.32425
-12.052717 74.45047 345.29675
-10.330925 73.592659 341.26663
-10.398078 73.563637 340.50531
-12.150066 73.612 338.94614
-12.209436 73.582344 338.18408
-6.3455749 73.795128 352.17831
-5.9518356 73.712784 350.89539
-12.574059 73.937401 345.79538
-12.392272 73.880203 344.76837
-10.277682 73.057259 342.01593
-10.345966 73.02877 341.25351
-12.164282 73.047508 338.93243
-6.1192799 73.200676 351.90744
-6.1555443 72.985214 351.15344
-6.2014651 72.99929 350.3215
-8.2921476 73.258392 349.88388
-11.670117 73.726288 348.98901
-13.680005 73.838837 348.47986
-13.754644 73.810196 347.70264
-12.58997 73.366737 345.78281
-12.661006 73.338257 345.01062
-10.609495 72.491409 341.48956
-11.240722 72.488365 340.46274
-11.866942 72.484856 339.43372
-12.178466 72.48291 338.9187
-6.3591218 72.311691 350.51245
-8.309742 72.690216 349.87241
-11.940032 73.18187 349.23709
-13.770792 73.236328 347.68988
-13.842107 73.208046 346.91177
-12.930438 72.795097 345.25354
-11.123643 71.978981 341.97702
-10.9403 71.925354 340.96286
-12.070271 71.97422 340.43271
-12.132117 71.946243 339.66824
-11.881526 71.701874 338.66928
-6.1326942 71.719925 350.24307
-14.043114 72.689468 347.93698
-12.945739 72.224228 345.24017
-13.01519 72.196701 344.46814
-12.084545 71.408409 340.41891
-11.240887 70.979668 338.04504
-6.6388922 71.204971 350.74832
-7.481245 71.154602 348.20004
-13.547007 72.061478 347.40433
-13.874374 72.060913 346.88617
-12.961832 71.653252 345.22745
-12.921709 71.475883 344.39981
-12.287954 70.894524 341.42203
-12.09955 70.842537 340.40582
-12.161306 70.815575 339.64142
-11.255045 70.416893 338.03131
-6.9912686 70.63842 350.22836
-7.4987822 70.588753 348.18866
-13.587764 71.303902 347.49023
-13.671616 71.185463 346.76196
-12.113946 70.276558 340.39194
-12.019777 70.14286 339.50931
-7.8860869 70.367577 349.30981
-7.4099407 69.875214 348.12131
-7.4943018 69.850769 347.35703
-13.687734 70.612083 346.74921
-13.293936 70.131966 342.25897
-12.631927 69.758621 340.87845
-8.09793 69.575897 350.47174
-7.4060264 69.138123 347.29053
-7.4884653 69.11422 346.52673
-13.11363 69.639153 344.5618
-12.899469 69.214912 341.11618
-12.708142 69.165985 340.09866
-8.0414982 68.936981 348.6655
-7.5052276 68.549454 346.51465
-12.875294 69.044647 344.293
-13.786144 68.866119 341.91388
-12.974801 68.622093 340.3345
-13.287088 68.620102 339.81732
-7.6410017 68.392914 349.93149
-8.0591402 68.369621 348.65402
-7.6849113 68.02977 347.52167
-8.0127325 68.029152 347.0116
-7.8480248 67.983864 345.99304
-13.495703 68.099678 340.82233
-13.30142 68.05262 339.80347
-7.4132195 67.802917 349.66208
-8.2751732 67.484871 347.25443
-8.1102095 67.44059 346.23465
-13.413926 67.948555 344.77774
-12.972517 67.879738 343.4942
-13.196553 67.533134 341.3269
-13.257129 67.509209 340.55801
-13.315812 67.48513 339.78958
-7.9218864 67.278732 350.16629
-13.429956 67.376778 344.76508
-13.878023 67.3283 342.69846
-13.211737 66.964462 341.3136
-13.018619 66.919647 340.29361
-13.077517 66.896248 339.52643
-7.5874381 66.542358 349.84116
-7.3227262 66.353775 348.76169
-7.4074306 66.332466 347.99564
-8.8827848 66.371452 346.97464
-13.190984 66.783585 344.49551
-13.893355 66.75753 342.68506
-13.226155 66.395668 341.29968
-7.5847507 65.807259 349.00638
-7.4250441 65.766296 347.98416
-13.461468 66.233047 344.73883
-13.241368 65.826897 341.28641
-13.047524 65.784279 340.26575
-12.040321 66.771088 354.93414
-7.9330049 65.23925 348.48486
-8.2618628 65.238388 347.97375
-13.477591 65.660965 344.72604
-13.542812 65.639229 343.95114
-12.626542 65.261757 342.30872
-14.178226 65.635849 342.91165
-13.569207 65.255981 340.75415
-11.585893 65.874084 354.53986
-11.673065 65.853561 353.75723
-8.2185841 64.857002 349.55389
-8.1961088 64.690842 348.72986
-8.2788172 64.670929 347.96158
-8.6066532 64.669945 347.45007
-14.122462 65.19075 347.04089
-14.113619 65.277031 345.28091
-13.558204 65.067551 343.93768
-12.894834 64.71212 342.54858
-12.957278 64.690956 341.7778
-14.404636 64.723427 340.72403
-9.4754705 64.731934 351.57147
-8.789609 64.140488 348.46368
-8.6236076 64.10228 347.43787
-14.138638 64.615768 347.02811
-13.763458 64.535835 344.95596
-12.65709 64.12381 342.28201
-12.97185 64.12188 341.76373
-14.93052 64.190849 341.21542
-14.731129 64.151108 340.19034
-9.0178986 63.93943 351.13629
-9.3515491 63.938896 350.62329
-14.154877 64.04081 347.01523
-13.77964 63.962986 344.94312
-12.356627 63.556541 342.78647
-12.672394 63.554626 342.26865
-12.987155 63.552814 341.7504
-14.945697 63.619476 341.20218
-14.745577 63.580818 340.17642
-9.0364923 63.368084 351.12534
-9.3701124 63.367443 350.6123
-8.8243208 63.002884 348.43988
-8.8938427 63.075424 347.62097
-12.559382 63.02438 343.79868
-12.624517 63.004993 343.02673
-12.687728 62.985458 342.25525
-13.002427 62.983536 341.73703
-14.704868 63.030293 340.93585
-14.760024 63.010437 340.16248
-9.4647465 62.849628 352.41248
-9.0543852 62.796638 351.11359
-9.3879747 62.795986 350.60059
-8.8413486 62.433922 348.42761
-9.1692619 62.432774 347.91464
-13.677116 62.855293 346.47168
-14.000423 62.853752 345.952
-12.574776 62.45401 343.78522
-12.892435 62.452244 343.26697
-12.703032 62.416183 342.24185
-13.017701 62.414261 341.72369
-14.719406 62.459316 340.92181
-14.774502 62.439957 340.14853
-9.3211031 62.24192 351.36349
-9.4058971 62.224342 350.58887
-8.8591242 61.864861 348.41602
-9.187007 61.863712 347.90308
-9.0183287 61.829651 346.87711
-13.693325 62.28112 346.45883
-12.590931 61.883537 343.77246
-12.908529 61.881771 343.25421
-12.718366 61.846809 342.22845
-13.033004 61.844784 341.7103
-14.733882 61.888229 340.9079
-9.8372564 61.70253 351.87579
-9.6730413 61.668934 350.83835
-9.041605 61.328651 349.43292
-8.8761978 61.295704 348.40372
-9.2040491 61.294559 347.89081
-13.598013 61.559975 346.3909
-12.859821 61.329086 344.01459
-12.923922 61.311203 343.24078
-13.047636 61.275311 341.6962
-14.74842 61.317051 340.89386
-9.8552666 61.129086 351.86401
-9.9402142 61.112438 351.0878
-9.0594387 60.758305 349.4213
-9.1412115 60.741821 348.64966
-9.2211523 60.725197 347.87848
-9.2998104 60.70863 347.10852
-12.80934 60.775158 344.77527
-12.875273 60.757915 344.00104
-12.939376 60.740528 343.22726
-13.255114 60.738647 342.70801
-13.570606 60.736656 342.18906
-15.275873 60.776985 341.38654
-10.208056 60.554733 351.33804
-9.1590462 60.171864 348.63803
-9.2389259 60.155838 347.86685
-9.5650082 60.154564 347.35287
-12.825493 60.203384 344.76245
-12.891427 60.186646 343.98822
-12.955439 60.169857 343.21451
-13.271207 60.167881 342.69528
-13.585236 60.165878 342.17499
-15.547138 60.219505 341.62628
-9.9497623 59.805706 350.23276
-9.4240856 59.61618 348.88391
-12.841675 59.631516 344.74957
-12.906878 59.615276 343.97467
-15.562403 59.646431 341.61292
-11.479196 59.663609 352.53073
-10.827403 59.420578 351.0607
-9.9390736 59.073265 349.39035
-9.7698622 59.044292 348.35788
-12.857919 59.059555 344.73672
-13.176587 59.057728 344.21741
-16.609373 59.129181 342.61978
-11.600964 58.887321 351.83884
-9.9569654 58.501415 349.37863
-10.03673 58.486824 348.60483
-10.113899 58.472195 347.83072
-10.439034 58.470737 347.31482
-14.626415 58.860027 346.37906
-11.618998 58.311069 351.827
-11.699315 58.296711 351.0455
-14.52979 58.138149 346.31094
-14.450769 58.255978 345.32654
-14.278704 58.042633 344.38907
-11.717381 57.720963 351.03369
-10.071813 57.343918 348.58069
-10.148222 57.330284 347.80591
-10.797303 57.32724 346.77402
-14.305947 57.375973 344.42618
-10.338034 56.783947 348.82687
-10.66497 56.782429 348.31067
-14.996325 57.130203 345.8172
-14.066258 56.790272 344.15588
-13.767392 56.448696 341.46765
-13.824636 56.435074 340.69504
-10.855936 56.233868 349.33463
-10.113772 55.876457 346.12842
-10.43491 55.87463 345.6123
-10.75498 55.872776 345.09589
-14.593654 56.239075 344.65707
-13.782723 55.877823 341.45428
-14.093333 55.875469 340.93311
-10.873916 55.660412 349.32285
-11.201646 55.658928 348.80585
-10.057088 55.318623 346.88824
-10.130814 55.306698 346.11612
-10.451952 55.304867 345.60001
-10.77196 55.303017 345.08365
-14.609312 55.664307 344.64334
-13.798115 55.306847 341.44083
-14.108726 55.304497 340.91968
-11.219564 55.085369 348.7941
-10.074128 54.74826 346.87595
-10.147947 54.736843 346.10376
-10.7883 54.733055 345.07062
-13.812774 54.735775 341.42667
-14.123323 54.733421 340.90555
-11.739715 54.530724 349.30252
-10.590045 54.196018 347.37869
-10.485363 54.165047 345.57474
-10.555704 54.154049 344.80316
-13.828166 54.1646 341.41321
-14.138654 54.162346 340.89218
-12.663729 54.281258 350.97028
-12.009767 53.964771 349.55194
-10.856871 53.632965 347.6243
-10.680446 53.613964 346.59189
-11.001554 53.612057 346.07434
-11.072048 53.601585 345.30127
-14.097924 53.601994 341.65308
-11.018654 53.040802 346.06204
-10.838081 53.022877 345.03232
-14.446991 53.077076 344.483
-14.367681 53.03809 341.89297
-10.08602 51.903683 347.58771
-9.6921387 51.605339 346.45074
-10.013124 51.603298 345.93478
-10.332369 51.60125 345.41776
-10.761048 51.740673 344.95364
-9.7093325 51.035381 346.43829
-10.029585 51.033337 345.92172
-16.370152 51.339069 341.29831
-16.420237 51.330215 340.51862
-15.339179 50.787262 344.42188
-16.384863 50.764091 341.28415
-16.434919 50.75584 340.50452
-13.204084 50.525448 349.74548
-11.283122 50.195679 347.03168
-11.171966 50.175838 345.22424
-15.884143 50.178387 340.76151
-13.039398 49.935593 348.68774
-14.543379 49.627388 344.40402
-16.311087 49.628021 342.81943
-16.36368 49.620953 342.03738
-13.311114 49.363373 348.93695
-16.120462 49.040977 341.76773
-15.395546 49.248947 351.73083
-15.351497 49.099838 350.88306
-13.652851 48.784042 348.40222
-16.135937 48.465706 341.75424
-15.557872 48.527206 351.9299
-15.369763 48.517891 350.87097
-13.670182 48.206493 348.38971
-13.896906 47.910908 346.19272
-14.847512 47.904514 344.62189
-16.160261 48.043037 343.35754
-16.099394 47.895725 342.52228
-15.272096 47.793407 350.80258
-15.34133 47.788479 350.01239
-13.913354 47.334846 346.17963
-15.121058 47.330982 344.86789
-16.32019 47.326969 343.54913
-15.174976 47.069317 350.73505
-13.960535 47.05344 348.6265
-14.62383 46.750267 344.33759
-13.608802 46.332417 348.29739
-14.458215 46.185303 346.67389
-15.15316 46.177464 344.84109
-15.265839 46.1703 343.27499
-13.258538 45.61319 347.96964
-14.47469 45.607838 346.66071
-15.169577 45.600597 344.82806
-15.538865 45.59539 343.51874
-13.276631 45.036243 347.9577
-14.49126 45.030293 346.64755
-15.185292 45.023632 344.81427
-15.297152 45.018665 343.24759
-13.479743 44.460854 348.99094
-13.294024 44.459187 347.9451
-14.508619 44.452637 346.63501
-14.944615 44.44685 344.54218
-13.497133 43.882607 348.9783
-13.565333 43.881279 348.19339
-14.269347 43.875797 346.36148
-14.586277 43.873611 345.83685
-14.961093 43.87019 344.52908
-13.838013 43.302074 348.44305
-13.648272 43.302658 347.39563
-14.602816 43.296463 345.82367
-14.919349 43.294266 345.29947
-14.976871 43.29353 344.51526
-13.855464 42.723621 348.43045
-14.736838 42.718739 344.24387
-14.193749 42.142967 347.89346
-14.951754 42.139645 345.27237
-15.266335 42.137535 344.74728
-14.466943 41.561371 348.1427
-14.853917 41.423115 345.20694
-15.167735 41.420998 344.68118
-14.75538 40.706974 345.14078
-14.473845 39.554775 345.63956
-14.788456 39.552559 345.11447
-15.101876 39.55043 344.58908
-16.355673 39.67482 344.10486
-14.490475 38.977428 345.62634
-14.804933 38.975197 345.10135
-15.117682 38.973072 344.57523
-14.507744 38.399975 345.6138
-14.524342 37.822418 345.60065
-15.461524 37.816105 344.02197
-15.735413 37.231266 344.26767
-15.384287 36.649384 345.5679
-15.697068 36.647278 345.04037
-15.493744 36.660877 343.99506
-15.400883 36.070526 345.55466
-15.713573 36.068516 345.02725
-15.509549 36.083214 343.98123
-15.417478 35.491573 345.54147
-15.730106 35.489555 345.01407
-15.525964 35.505451 343.96817
-15.433433 34.912518 345.52744
-15.746 34.910503 345.00015
-15.541768 34.927589 343.95432
-15.450058 34.333462 345.51425
-15.762505 34.33144 344.987
-12.234945 33.453281 334.57108
-15.466622 33.754204 345.50101
-15.778397 33.752285 344.97308
-15.831607 33.761009 344.18607
-11.956738 32.890003 335.07736
-11.749348 32.910587 334.06708
-15.943745 33.143242 346.8006
-15.483309 33.17495 345.48773
-15.795022 33.173027 344.95984
-15.731883 33.046738 344.12109
-11.927332 32.314682 335.82986
-11.970402 32.324516 335.06274
-12.012157 32.334404 334.29697
-15.70223 32.573994 346.52505
-11.647383 31.750465 336.33649
-11.940995 31.748499 335.81525
-11.984004 31.758923 335.04828
-12.025762 31.769512 334.2825
-15.719677 31.993441 346.51236
-11.661839 31.184284 336.32254
-11.954688 31.182312 335.80072
-11.997577 31.193335 335.03375
-11.926835 31.072199 334.22083
-15.993942 31.399782 346.76056
-15.416956 31.301767 345.39612
-15.727663 31.299828 344.86783
-11.924912 30.604462 336.55499
-11.969084 30.616127 335.7868
-15.317293 30.587593 345.33102
-15.370936 30.599337 344.54358
-12.189417 30.023544 336.78882
-11.982747 30.049744 335.77222
-12.274407 30.047951 335.25015
-12.641657 30.071012 333.19446
-12.927948 30.069326 332.67206
-12.203198 29.455959 336.77417
-11.996501 29.483461 335.75757
-12.28801 29.481661 335.23563
-12.868493 29.478325 334.1915
-12.543128 29.374193 333.13394
-15.295709 29.416298 346.09326
-15.349813 29.429176 345.30392
-12.217682 28.88838 336.76019
-12.194366 28.693043 332.8299
-15.569056 28.82093 346.34091
-15.366467 28.849924 345.29062
-12.48145 28.305058 336.99338
-12.524163 28.319141 336.22241
-12.456191 28.112963 333.05792
-15.383093 28.27047 345.2774
-12.789028 27.735134 336.4559
-12.830095 27.749886 335.68518
-12.506329 27.649651 334.62311
-12.590863 27.615326 333.92212
-12.468849 27.548166 333.04297
-15.399656 27.691015 345.26416
-12.760551 27.15176 337.2132
-13.053923 27.150127 336.68942
-12.445569 26.967871 333.79504
-15.41564 27.11146 345.25015
-12.81723 26.598568 336.42731
-12.857415 26.614511 335.65601
-15.432265 26.531904 345.23694
-13.082151 26.012262 336.6608
-12.871136 26.046724 335.64139
-12.843178 25.883204 334.89182
-13.7438 25.634426 338.79095
-13.626835 25.570147 337.89978
-13.09587 25.443377 336.64615
-12.697243 25.235249 334.76398
-15.722718 25.353594 345.47092
-14.265705 25.024679 339.28088
-13.320718 24.837564 337.65506
-13.036853 24.761801 335.81351
-15.57517 24.69161 345.33621
-13.982257 24.453114 339.79245
-13.334524 24.267281 337.64035
-13.627806 24.265966 337.11526
-13.415335 24.303949 336.09308
-13.583407 23.819853 339.40976
-13.558814 23.657909 338.65259
-13.349033 23.697002 337.62634
-13.642253 23.695688 337.10135
-13.277263 23.08779 339.16364
-13.573442 23.086334 338.63852
-13.362871 23.126619 337.61163
-15.54644 22.863375 345.26208
-15.604632 22.788298 344.52536
-13.587307 22.514753 338.62378
-13.377379 22.556141 337.5976
-15.827906 22.166513 345.56265
-15.363722 22.230629 344.25198
-13.996982 21.954569 339.79144
-13.601904 21.943075 338.60968
-13.391215 21.985659 337.58289
-15.637088 21.62908 344.49826
-13.826546 21.327642 339.62585
-13.36409 21.393845 338.34451
-13.697266 21.414051 337.04276
-13.482977 21.457912 336.0195
-15.861148 21.004801 345.53616
-15.652919 21.049419 344.48441
-13.841201 20.754768 339.61169
-13.884209 20.776573 338.83337
-13.596656 20.714603 336.98141
-13.496724 20.888527 336.00485
-15.877099 20.423943 345.52222
-15.411982 20.493254 344.21106
-13.898133 20.204191 338.81857
-13.282435 20.062021 335.89755
-15.685282 19.889803 344.45737
-14.165809 19.607571 339.0563
-13.296031 19.493032 335.88309
-15.909639 19.261833 345.495
-16.21681 19.26046 344.96457
-13.054442 19.005219 337.98877
-13.233004 18.876032 337.41733
-13.309596 18.923944 335.86856
-15.926262 18.680676 345.48175
-15.975172 18.704693 344.69052
-12.954749 18.306684 337.92792
-13.246779 18.305746 337.40268
-13.034304 18.355553 336.37906
-15.991093 18.124134 344.67657
-13.260525 17.735363 337.38803
-13.551396 17.734509 336.86249
-13.486922 17.112713 338.40106
-13.274302 17.164875 337.37338
-13.565082 17.164221 336.84796
-16.281036 16.935823 344.90964
-13.500756 16.541033 338.38632
-13.540723 16.567354 337.60956
-16.555698 16.326771 345.15747
-14.266074 15.59532 338.95557
-14.5352 14.993202 339.19476
-14.572883 15.021457 338.41324
-238.16536 26.58802 808.33795
-16.108686 14.35402 344.75504
-16.154097 14.382582 343.96301
-16.169804 13.802217 343.94925
-15.915003 13.754732 338.8674
-15.560803 13.118852 340.95428
-16.186226 13.14844 339.1073
-16.459768 12.609907 344.18237
-16.200048 12.572254 339.09262
-16.475475 12.028742 344.16861
-16.049931 11.922363 338.96191
-16.490479 11.447474 344.15414
-16.156279 11.354988 340.63647
-16.506277 10.866313 344.14032
-16.42816 10.744372 340.87857
-16.521311 10.284996 344.12589
-16.537016 9.7036705 344.11212
-17.331009 9.0178356 344.88315
-16.8263 8.5055685 344.34451
-17.101917 7.887495 344.5928
-17.13201 6.7222314 344.56384
-17.027632 6.0147619 344.50061
-17.067724 6.0525479 343.70541
-16.704443 5.3845987 343.38196
-16.993595 4.1827388 343.61447
-2.7411799 142.32001 350.45401
-2.1521001 141.86 350.897
-2.7518301 141.67999 350.116
-3.3385201 141.681 350.01901
-0.43689799 143.317 355.60699
-1.00283 142.799 354.60999
-1.58429 141.56599 351.44
-2.15697 141.311 350.901
0.172198 142.944 356.40601
-0.433873 142.855 355.96399
-1.56633 140.85001 351.34399
-2.1682601 140.672 350.56299
-2.7616501 140.58299 350.12399
-3.9347601 140.584 349.92801
-7.3095899 138.875 345.99799
-0.413863 142.013 355.59799
-1.02042 141.59801 354.271
-1.57122 140.3 351.34799
-2.1563599 139.868 350.12399
-2.71984 139.703 349.927
-3.3062501 139.703 349.82901
-3.89235 139.703 349.73001
-7.2965698 138.27901 346.15799
-7.8676701 138.16299 345.79199
-0.414646 141.22301 355.06699
-1.02545 141.04401 354.276
-1.57614 139.75 351.353
-2.13799 139.15401 350.02802
-2.7247 139.155 349.931
-3.90204 139.067 349.39301
-7.2688198 137.457 345.802
-7.8470898 137.453 345.694
-1.00727 140.323 354.17801
-1.58108 139.2 351.35699
-2.7295899 138.606 349.935
-3.31601 138.606 349.83701
-3.9021201 138.606 349.73801
-0.99679899 139.51199 353.733
-1.58605 138.64999 351.362
-2.15804 138.397 350.82101
-2.7345099 138.058 349.939
-3.32093 138.058 349.841
-7.2782302 136.368 345.806
-7.8576999 136.28 345.36401
-1.59501 138.961 353.64401
-2.73333 137.59599 350.285
-7.28297 135.823 345.80899
-7.8612399 135.82001 345.70099
-0.998941 137.636 351.80899
-1.5889 137.63699 351.71399
-2.73827 137.047 350.289
-6.7551498 135.77901 346.79199
-7.2877302 135.27901 345.811
-7.8660002 135.27499 345.703
-10.6325 133.85001 341.75201
-0.41370401 137.084 351.90701
-0.99864101 136.86 351.28799
-1.60827 136.91299 351.03101
-2.1492 136.584 350.73199
-2.7370999 136.584 350.63501
-3.33583 136.412 349.85199
-6.7600298 135.23399 346.79401
-7.2906299 134.81799 346.14899
-10.05 133.34399 342.35001
-10.619 133.175 341.577
-0.41028401 136.62 352.25601
-0.97745699 136.034 350.92801
-2.74209 136.034 350.638
-3.3034699 135.36501 348.97198
-6.13974 134.19701 346.02899
-7.2954202 134.27299 346.151
-10.0185 132.532 341.99701
-10.5872 132.36501 341.22501
-0.41532999 136.069 352.26099
-0.98244101 135.485 350.93301
-2.14852 135.151 349.95499
-2.7234399 134.81799 349.07501
-3.31406 134.73399 348.63699
-6.2229099 134.976 349.14301
-7.3021698 133.645 345.81699
-7.85425 133.478 345.60699
-10.022 131.832 341.341
-10.5918 131.825 341.22601
-11.1613 131.819 341.10999
-0.39655399 135.353 352.16299
-0.97942197 135.02 351.28
-2.7346399 134.188 348.73999
-3.3247099 134.103 348.30099
-6.22788 134.427 349.146
-9.4832001 131.7 342.54401
-10.0271 131.37199 341.67099
-11.1659 131.28 341.11099
-0.98444098 134.47 351.284
-1.58101 134.386 350.845
-2.1480999 133.72501 349.181
-2.7214601 133.395 348.30399
-3.28057 133.23 348.103
-3.8638 133.228 348.00201
-4.4513602 133.144 347.56201
-9.46099 130.918 342.11401
-10.0318 130.832 341.672
-0.98142898 134.00301 351.63199
-1.58608 133.83701 350.85001
-2.7019701 132.686 348.207
-3.2855101 132.68401 348.10599
-4.4516602 132.67999 347.90201
-8.4209499 131.59599 345.06699
-9.4656601 130.37801 342.116
-10.0182 130.159 341.496
-1.57619 133.453 351.54001
-2.7069299 132.14 348.20999
-3.2904799 132.138 348.10999
-4.4566302 132.133 347.905
-8.4247198 131.132 345.40399
-9.4702196 129.916 342.44699
-10.0417 129.83099 342.00201
-1.58878 132.82001 351.20099
-2.7054 131.674 348.552
-3.29547 131.592 348.11301
-5.6264901 131.58099 347.69901
-6.1628299 131.09 346.716
-8.4296103 130.58701 345.405
-9.4749298 129.375 342.448
-10.4401 127.181 336.42999
-10.943 126.633 335.16199
-2.13306 131.94099 350.90201
-2.70386 131.20799 348.89401
-3.3004899 131.045 348.116
-3.8837399 131.043 348.01401
-6.1479998 130.22301 345.94501
-6.7005901 130.05701 345.73599
-8.4333601 130.121 345.742
-9.4798203 128.757 342.11899
-10.4167 126.416 336.01401
-10.9464 126.029 334.84601
-3.2995601 130.57899 348.45801
-3.8887801 130.496 348.017
-4.4460502 130.33099 347.81299
-5.0026698 130.16499 347.60699
-6.1268101 129.517 345.84601
-6.7054801 129.51199 345.73801
-8.4371099 129.655 346.07901
-9.4843998 128.29401 342.45001
-9.8877802 126.198 336.866
-10.3939 125.726 335.91501
-10.9509 125.5 334.84601
-3.3253801 130.757 350.367
-5.0076299 129.618 347.60901
-6.1283002 129.05 346.18399
-6.7103901 128.968 345.73999
-7.8666701 128.95799 345.521
-10.9567 125.042 335.16299
-3.8880899 129.561 348.70099
-6.1332102 128.505 346.186
-6.7153301 128.423 345.742
-7.2936502 128.418 345.633
-7.8716102 128.41299 345.522
-9.8970804 125.133 336.867
-10.4221 124.866 336.40601
-10.9624 124.583 335.48001
-5.0131001 128.603 347.953
-6.7174001 127.956 346.07999
-7.2986102 127.874 345.63501
-7.8765702 127.869 345.52399
-8.4541702 127.863 345.41199
-10.9691 124.196 336.116
-11.5282 124.115 335.67801
-4.4724498 128.618 349.284
-5.0135698 128.134 348.29401
-6.71947 127.487 346.41699
-7.3035898 127.329 345.63599
-7.8815498 127.324 345.526
-8.4591503 127.318 345.414
-10.47 124.204 337.39099
-10.9727 123.593 335.798
-11.5328 123.584 335.67801
-2.1527901 128.321 350.13901
-5.6017199 127.582 348.19101
-6.1644101 127.261 347.30399
-6.7244501 126.942 346.41901
-8.40907 126.45 345.211
-10.4747 123.67 337.392
-10.9803 123.274 336.755
-2.1470499 127.456 349.35901
-2.73943 127.376 348.918
-3.2982399 127.211 348.71399
-5.6067801 127.034 348.19299
-6.14605 126.477 346.867
-6.7294502 126.396 346.42099
-7.3089199 126.391 346.31201
-8.9385004 125.277 343.56299
-10.9858 122.811 337.07501
-11.5451 122.661 336.315
-2.14482 126.984 349.703
-3.27737 126.502 348.61499
-3.86149 126.498 348.51199
-4.4452801 126.495 348.40701
-6.1510601 125.931 346.86899
-6.7344799 125.851 346.423
-7.31394 125.845 346.31299
-7.84164 125.367 345.327
-8.36905 124.742 343.67801
-8.9442997 124.662 343.233
-9.4113503 123.077 338.46799
-2.1426201 126.512 350.047
-4.4503798 125.947 348.41
-5.62503 125.788 347.521
-6.1560898 125.385 346.871
-8.3769503 124.053 343.017
-11.5783 121.934 337.44901
-2.1403501 126.038 350.39099
-2.7151201 125.722 349.505
-3.28758 125.407 348.621
-3.8717 125.403 348.51801
-4.4555001 125.399 348.41299
-5.0435901 125.32 347.96899
-6.16115 124.839 346.87299
-6.7445998 124.759 346.427
-7.32407 124.753 346.31699
-9.36549 121.691 338.271
-9.9303198 121.683 338.15399
-11.562 121.201 336.95401
-3.2862699 124.934 348.96399
-3.8768499 124.856 348.521
-4.46065 124.852 348.41599
-5.0487599 124.773 347.97101
-6.1491499 124.161 346.69501
-6.7220898 124.052 346.327
-7.2762899 123.812 345.77802
-7.8091302 123.122 343.79501
-8.3868904 122.971 343.01901
-9.3702803 121.157 338.272
-9.9351797 121.079 337.83301
-11.6302 121.26 338.44101
-3.2978899 124.312 348.62701
-4.4658298 124.304 348.41901
-5.02211 124.138 348.20901
-6.6994801 123.346 346.22601
-7.2813101 123.267 345.78
-7.8183198 122.436 343.134
-8.36376 122.27 342.91901
-9.3466997 120.464 338.172
-9.9400101 120.545 337.83301
-11.635 120.724 338.44101
-3.3030801 123.765 348.63101
-7.2835999 122.794 346.11801
-7.8190999 122.037 343.797
-8.3405399 121.569 342.81799
-9.9449701 119.942 337.51199
-2.72383 123.221 348.737
-3.3083 123.217 348.634
-7.8218999 121.565 344.13101
-9.3304005 119.037 337.112
-2.7290699 122.673 348.73999
-3.29319 122.437 348.19601
-3.8557601 122.2 347.651
-4.4381099 122.195 347.54501
-6.1716499 122.395 348.237
-7.3905001 122.779 348.56299
-7.8087502 120.892 343.95401
-8.3521795 120.417 342.491
-8.8073301 118.832 337.896
-9.3352203 118.504 337.11301
-12.0163 117.37 333.89301
-3.27158 121.729 348.09601
-3.86094 121.653 347.65302
-4.44872 121.577 347.211
-6.1806898 121.775 347.89899
-7.3418298 121.834 348.01801
-8.3571796 119.876 342.492
-8.7753897 118.046 337.54999
-9.3400602 117.971 337.11301
-9.9032402 117.895 336.67401
-3.8600299 121.178 347.99399
-4.4539499 121.031 347.21301
-6.1858802 121.227 347.90201
-8.3603497 119.404 342.82401
-8.7802401 117.512 337.55099
-9.3440399 117.503 337.43301
-9.9081202 117.363 336.67499
-11.4666 116.194 333.38599
-3.85906 120.701 348.33499
-8.7820902 117.109 338.19299
-9.3489103 116.969 337.43399
-9.9123201 116.96 337.315
-11.4411 115.448 332.974
-4.4534302 120.078 347.89301
-8.3666897 118.456 343.48599
-9.35184 116.566 338.07599
-9.9172096 116.426 337.315
-11.4166 114.766 332.87601
-5.0362902 119.594 348.12601
-5.5624599 119.268 347.81
-7.3137898 119.111 346.802
-8.3717299 117.914 343.48801
-8.8436499 116.612 339.68701
-9.3567305 116.031 338.07599
-9.92167 115.957 337.63599
-7.3189902 118.564 346.80301
-8.3787298 117.305 343.15799
-8.8312302 115.885 339.189
-9.36164 115.496 338.077
-9.9266005 115.423 337.63599
-10.871 113.783 333.31
-11.4268 113.772 333.18701
-5.6546102 119.297 350.62
-7.3242102 118.016 346.80499
-8.3818998 116.829 343.48999
-9.3643703 115.089 338.72101
-9.9305 115.016 338.28
-11.987 113.233 333.06299
-5.6599598 118.745 350.62201
-7.3294501 117.469 346.80701
-7.9093699 117.462 346.69299
-8.9421301 116.129 343.08499
-9.9348698 114.543 338.60199
-11.9943 112.826 333.69
-5.0546699 117.969 350.285
-5.6459098 117.895 349.83401
-6.2066498 117.66 349.27701
-6.79109 117.653 349.16599
-7.91219 116.982 347.03201
-9.4300404 114.519 339.896
-9.9391499 114.07 338.92599
-10.946 112.748 334.76599
-11.999 112.297 333.69
-5.0366802 117.19 349.84
-5.6271901 117.116 349.38901
-6.2119799 117.109 349.27899
-6.8035002 116.968 348.48599
-7.8635302 115.983 346.15201
-8.8655596 114.053 340.34
-9.4340296 114.044 340.22198
-5.0420098 116.639 349.84299
-5.6325498 116.566 349.39099
-6.1811199 116.301 348.914
-6.7796202 116.259 348.383
-7.36237 116.251 348.26999
-7.9151502 116.084 348.052
-8.8722496 113.453 340.01501
-5.04738 116.088 349.845
-6.75564 115.55 348.28
-7.3382201 115.542 348.16699
-7.9204302 115.535 348.05301
-8.4505196 114.947 346.375
-8.8616695 112.868 340.129
-9.3867397 112.532 339.37
-10.5196 112.512 339.129
-12.0794 111.253 335.14999
-5.6384902 115.53 349.73801
-7.3435302 114.993 348.16901
-7.9257398 114.985 348.05499
-8.8247204 112.005 339.48999
-9.3917599 111.995 339.371
-10.5246 111.975 339.129
-12.0868 110.84 335.785
-13.2055 110.817 335.53299
-6.1654201 114.718 349.76001
-6.7757502 114.731 349.26199
-7.34231 114.573 348.85101
-7.9310799 114.436 348.056
-8.4652996 113.724 345.70499
-8.8824701 112.023 340.995
-9.3968 111.458 339.371
-10.5297 111.438 339.129
-11.596 110.865 337.39001
-12.0917 110.308 335.785
-12.6512 110.296 335.659
-4.5115299 115.022 351.54599
-7.3442602 114.087 349.19501
-7.9337201 113.95 348.39801
-8.5182695 113.878 347.94199
-8.8699102 111.299 340.49301
-9.4004898 110.981 339.69601
-9.9685097 110.911 339.25101
-10.5347 110.901 339.129
-12.0966 109.775 335.784
-12.5872 109.223 334.189
-4.47084 114.019 350.64899
-6.2270999 114.064 350.66299
-6.8138599 114.056 350.55099
-7.9363599 113.464 348.73999
-8.4930801 113.169 347.83801
-9.40557 110.444 339.69601
-9.9735899 110.374 339.25101
-10.4798 109.817 337.63599
-11.5738 109.524 336.64899
-12.5889 108.578 333.55801
-4.48246 113.403 350.30899
-5.0691099 113.396 350.19901
-5.6554198 113.389 350.08899
-6.7929902 113.28 350.103
-7.3515601 113.048 349.54001
-8.5247297 112.905 348.62601
-9.3936396 109.665 338.87299
-9.9192696 109.41 338.40201
-10.4849 109.282 337.63599
-11.0482 109.271 337.513
-12.0126 107.916 333.479
-12.5905 107.935 332.92801
-3.9099801 113.208 351.55701
-4.4879599 112.852 350.311
-6.7720499 112.505 349.655
-7.3569398 112.497 349.54199
-7.9471598 112.362 348.74301
-8.53232 112.291 348.28601
-9.0050497 111.153 345.048
-9.9243097 108.874 338.40201
-10.49 108.747 337.63599
-11.0532 108.736 337.513
-3.8929601 112.433 351.10901
-4.4934902 112.3 350.314
-5.0801501 112.293 350.20401
-7.36235 111.945 349.543
-7.95259 111.811 348.745
-8.5068798 111.582 348.18201
-9.0358496 110.948 346.16199
-9.9293804 108.338 338.40201
-10.4951 108.212 337.63599
-11.0583 108.201 337.51199
-4.4928498 111.81 350.66
-5.0558801 111.582 350.10101
-6.1976399 111.409 349.772
-7.3677802 111.393 349.54501
-7.8899498 111.067 349.216
-8.4763002 110.996 348.759
-9.06672 110.741 347.28101
-9.3876305 107.991 339.022
-9.9344702 107.802 338.40201
-10.4997 107.734 337.95801
-11.4652 106.331 333.70801
-11.9902 106.167 333.48199
-4.4795799 111.445 351.69501
-5.0315199 110.872 349.99701
-5.6174898 110.865 349.88599
-6.2031002 110.857 349.77399
-9.0702896 110.253 347.621
-9.3727598 107.333 338.84698
-9.9395905 107.266 338.40201
-10.5044 107.254 338.28
-12.5508 105.625 333.354
-4.4914598 110.829 351.353
-5.6229801 110.313 349.88901
-6.20859 110.305 349.776
-9.4350595 107.273 340.02301
-9.9447298 106.729 338.40201
-10.5095 106.718 338.28
-11.5081 105.641 335.069
-12.5557 105.095 333.353
-4.4907098 110.337 351.70001
-5.0912199 110.207 350.901
-5.6231499 109.822 350.23401
-6.21877 109.693 349.43701
-9.4402905 106.735 340.02301
-9.94876 106.249 338.72601
-10.5147 106.182 338.27899
-11.4916 104.936 334.57999
-12.0064 104.685 334.10999
-12.5619 104.619 333.66699
-4.5437398 110.222 352.60901
-5.0853 109.775 351.59299
-5.6286802 109.269 350.23599
-6.2243199 109.141 349.439
-9.0273895 108.17 346.73499
-9.9515696 105.823 339.37299
-10.5186 105.756 338.92599
-11.0842 105.634 338.155
-12.0114 104.155 334.10901
-4.4889998 109.349 352.39801
-5.09094 109.221 351.595
-6.2252102 108.649 349.78201
-10.5238 105.218 338.92599
-11.0893 105.152 338.478
-11.5232 104.045 335.06699
-4.5011201 108.734 352.05399
-5.0658898 108.508 351.491
-5.66506 108.381 350.69
-6.2259998 108.156 350.12799
-6.8160501 108.088 349.67001
-8.5485001 107.957 349.25201
-9.4528799 105.229 340.677
-9.96068 104.801 339.698
-10.5283 104.735 339.25
-11.5283 103.513 335.06699
-4.5002799 108.238 352.40302
-5.0528998 107.678 350.698
-5.6400199 107.67 350.586
-6.2316098 107.603 350.13
-6.8216701 107.536 349.672
-8.5142403 107.136 348.76801
-8.9068604 104.875 341.30301
-9.45819 104.689 340.677
-10.5328 104.251 339.57501
-11.0993 104.24 339.45001
-11.5339 103.086 335.702
-5.6456399 107.117 350.58801
-6.23241 107.109 350.47501
-6.8273101 106.984 349.67401
-7.93332 106.651 349.229
-8.5197601 106.584 348.76901
-8.8920498 104.214 341.12601
-9.4635201 104.149 340.677
-11.1045 103.701 339.45001
-12.6576 102.527 335.44501
-4.4633002 106.696 351.50201
-5.6512899 106.564 350.59
-6.23805 106.555 350.47699
-7.9388599 106.099 349.23001
-8.5253096 106.032 348.76999
-8.8950901 103.728 341.45401
-9.4688702 103.61 340.677
-9.9736004 103.292 340.349
-12.664 102.046 335.76401
-4.4756498 106.084 351.16101
-5.06984 106.019 350.70499
-7.9444299 105.547 349.23199
-8.5013399 105.267 348.32401
-8.8980303 103.24 341.78299
-9.9788504 102.752 340.35001
-10.5485 102.635 339.57401
-11.5495 101.588 336.33801
-12.6703 101.563 336.082
-4.4879899 105.474 350.82001
-5.02561 105.04 349.80801
-5.6112299 105.031 349.69501
-7.3619099 105.06 349.69299
-8.4804897 104.449 347.539
-8.9058304 102.646 341.45499
-9.4760799 102.635 341.33301
-9.9841204 102.213 340.35001
-11.5547 101.054 336.33701
-12.1153 101.041 336.20901
-12.6731 100.927 335.44199
-4.4870601 104.977 351.16599
-5.03125 104.488 349.811
-5.6168599 104.479 349.698
-7.3714499 104.452 349.353
-8.3923903 102.633 343.10001
-9.4491901 101.941 341.23001
-9.9894199 101.673 340.35001
-10.56 101.506 339.25
-11.5598 100.52 336.336
-12.1185 100.357 335.25201
-4.4928002 104.423 351.16901
-5.62252 103.927 349.70001
-7.3771601 103.899 349.353
-8.3659296 101.937 342.99799
-8.9117498 101.668 342.11301
-9.4283504 101.094 340.14801
-9.9976301 101.031 339.69901
-10.5661 100.917 338.92499
-11.4998 99.438301 334.54501
-12.0569 99.376297 334.10101
-5.0465899 103.634 350.80099
-5.6224499 103.429 350.04501
-6.21346 103.366 349.58701
-6.7983298 103.356 349.47198
-7.3867602 103.292 349.013
-8.3423204 101.189 342.564
-8.9196501 101.075 341.785
-9.4357204 100.504 339.82199
-9.9704599 100.34 339.59601
-10.5391 100.227 338.823
-11.505 98.906601 334.54501
-5.6165099 102.985 350.733
-6.2139702 102.867 349.93201
-6.80404 102.804 349.474
-8.3508902 100.595 342.23599
-8.8954697 100.33 341.35599
-10.9516 98.435898 334.98801
-11.5102 98.422997 334.85999
-6.2144899 102.368 350.27701
-6.78514 102.183 349.63199
-7.3292799 101.93 349.14401
-8.3793497 100.358 343.33099
-8.8737202 99.537102 340.59698
-9.44454 99.4757 340.14899
-10.9569 97.903702 334.987
-11.5154 97.890701 334.85901
-6.7967701 101.911 350.85101
-8.3555698 99.610703 342.897
-8.8791599 98.9972 340.59799
-9.4499798 98.936203 340.14899
-9.9865599 98.723801 339.59601
-10.5203 98.560303 339.36899
-10.9621 97.371498 334.987
-11.5206 97.358398 334.85901
-12.0786 97.3452 334.73001
-6.8024402 101.357 350.854
-7.3976498 101.241 350.047
-8.3545599 99.166901 343.55899
-8.87922 98.554901 341.25201
-9.4533901 98.445297 340.47501
-10.9666 96.885902 335.30301
-11.5258 96.826103 334.858
-6.7927699 100.628 350.32401
-7.4075198 100.635 349.70599
-7.9336801 100.211 348.689
-8.8846798 98.013901 341.25299
-9.4567099 97.953598 340.802
-10.0272 97.893204 340.35101
-10.9712 96.3993 335.62
-12.0892 96.280403 334.728
-6.7579398 99.833099 349.953
-7.34759 99.771599 349.49301
-7.9394002 99.658897 348.69
-8.8901701 97.472801 341.25299
-9.4392996 97.328003 340.84201
-9.9995298 97.201897 340.24799
-10.5352 96.990997 339.694
-11.536 95.852699 335.492
-12.0951 95.839401 335.362
-7.9414301 99.157204 349.03299
-8.5310497 99.045403 348.23001
-8.8900204 97.026703 341.91
-9.4609699 97.014702 341.78601
-10.5406 96.451599 339.694
-11.5413 95.319298 335.491
-12.1004 95.305801 335.36099
-12.659 95.292198 335.23099
-6.86271 99.7556 353.16101
-7.35467 98.7155 349.83801
-7.9471898 98.6045 349.034
-8.5336704 98.543602 348.573
-9.4640999 96.5196 342.116
-10.546 95.912003 339.69299
-11.1133 95.852798 339.241
-11.5456 94.9207 336.44699
-12.1061 94.862099 335.99799
-7.4260802 98.843201 351.97101
-7.9491401 98.101303 349.37799
-8.5394697 97.991203 348.57401
-9.9806995 95.476997 340.47198
-10.5515 95.372398 339.69299
-11.1188 95.313599 339.241
-12.1114 94.327499 335.99701
-6.7859802 97.569397 349.61801
-7.3750801 97.509598 349.15701
-8.5239601 97.319901 348.39001
-9.9861603 94.936401 340.47198
-10.5556 94.878098 340.01901
-11.1243 94.774399 339.23999
-12.1398 93.980797 336.70499
-6.7968402 96.967499 349.27701
-7.9646301 96.945801 349.039
-10.5611 94.337898 340.01901
-11.1282 94.324898 339.89099
-11.6955 94.177101 338.78699
-6.7410498 96.060097 348.72299
-12.1959 93.106796 336.83801
-12.7614 93.356102 338.64401
-6.74685 95.508003 348.72501
-7.33464 95.449898 348.26501
-7.91682 95.438599 348.14401
-8.4986095 95.4272 348.02301
-11.6377 92.844002 338.90399
-12.2017 92.613701 337.159
-12.7668 92.816803 338.64301
-7.3358102 94.944702 348.60699
-7.9226499 94.886902 348.146
-8.5044298 94.875298 348.02399
-9.4448299 92.699097 339.94601
-10.0141 92.642799 339.495
-10.5464 92.480698 339.26401
-12.1384 91.780098 336.95401
-7.3463302 94.346497 348.26801
-7.9285002 94.334999 348.147
-9.4454002 92.245201 340.599
-10.5179 91.792397 339.16101
-12.1438 91.243599 336.953
-12.7045 91.187798 336.50101
-13.2276 90.942398 335.62601
-13.7482 90.697701 334.754
-14.305 90.683197 334.61899
-7.3428502 93.885597 348.95099
-9.4510298 91.7043 340.599
-10.0215 91.648697 340.146
-11.587 90.762299 337.405
-12.1492 90.7071 336.953
-12.6393 90.2742 335.65601
-13.198 90.259903 335.52301
-13.7535 90.163902 334.75201
-14.3103 90.1493 334.617
-14.8666 90.134499 334.48099
-10.0251 91.1502 340.47299
-10.5601 90.946098 339.91501
-11.5924 90.225304 337.40399
-12.1547 90.170502 336.952
-13.2034 89.724998 335.522
-14.3156 89.615303 334.616
-14.8719 89.600502 334.48001
-8.0347204 93.834801 352.72299
-9.0880604 92.5242 347.60699
-10.0266 90.692398 341.12799
-11.0978 90.243401 339.68201
-12.1602 89.633797 336.95099
-12.6738 89.356003 336.14801
-13.2088 89.190102 335.521
-8.0408201 93.275497 352.724
-9.1030598 92.279198 349.27301
-9.6287804 91.743103 347.22699
-10.0301 90.191498 341.45599
-10.6029 90.095703 340.672
-11.6012 89.271301 338.371
-12.1654 89.177002 337.59399
-13.2142 88.655098 335.51999
-14.3283 88.586403 334.931
-14.8826 88.532204 334.47601
-3.93135 92.452301 351.62601
-8.5694599 92.351997 352.035
-9.1089096 91.7248 349.27499
-9.6346302 91.191597 347.228
-10.6037 89.6763 341.65701
-11.1746 89.621902 341.19901
-12.1707 88.678902 337.91699
-13.2203 88.158997 335.83801
-13.7778 88.1054 335.384
-14.3356 88.090599 335.24799
-14.888 87.998001 334.474
-3.8987 91.664299 351.254
-4.4944801 91.6101 350.79599
-8.5829296 91.705597 351.34201
-9.1148396 91.170303 349.276
-9.6613903 90.783897 347.64099
-10.2221 90.5849 346.763
-11.7495 89.025002 340.741
-12.1762 88.140503 337.91501
-12.7025 87.862198 336.71399
-13.2258 87.623398 335.83701
-3.8882101 91.195396 351.948
-4.5006299 91.055199 350.79901
-8.5852404 91.191399 351.69
-9.1208696 90.615601 349.27701
-10.2259 90.0756 347.103
-11.6193 87.577599 337.724
-12.1822 87.524902 337.26999
-12.7438 87.510597 337.13699
-13.232 87.125702 336.15601
-14.9037 87.005203 335.108
-3.90272 90.596199 351.60501
-4.51441 90.457703 350.457
-7.9068899 89.615501 347.94299
-9.7100296 90.0485 349.15302
-10.2318 89.523804 347.104
-11.1232 87.617996 340.33401
-11.6257 87.001602 337.401
-12.1879 86.949402 336.94699
-13.7967 86.574799 336.01999
-14.3555 86.559898 335.883
-14.9115 86.507301 335.42599
-3.9006 90.082298 351.953
-4.4976702 90.029198 351.49301
-5.1072998 89.891998 350.34299
-7.9172602 89.0224 347.60501
-10.2357 89.012802 347.444
-11.0661 86.553398 338.177
-11.6313 86.464104 337.39999
-12.158 86.2659 336.84399
-13.3161 86.420898 337.00101
-13.8034 86.0756 336.33899
-4.49614 89.514603 351.841
-5.0723901 89.2276 350.58099
-7.92768 88.430397 347.26801
-11.0703 86.052101 338.5
-14.3699 85.560402 336.522
-14.9293 85.545303 336.38501
-3.29179 88.5149 350.48001
-5.0370998 88.562103 350.81799
-5.6241698 88.550499 350.70001
-7.8635101 87.579102 347.05399
-9.0296097 87.4748 346.129
-9.60744 87.4618 346.00299
-10.6062 86.191498 340.896
-11.076 85.513 338.5
-11.6418 85.4254 337.72198
-13.8177 85.110603 337.302
-14.3786 85.095596 337.16501
-3.3069601 87.920799 350.14099
-8.4533005 86.976501 346.59299
-9.0355701 86.924698 346.13
-9.61339 86.911598 346.004
-10.5764 85.501198 340.79199
-11.0802 85.010101 338.823
-11.6467 84.923302 338.04401
-12.7 84.530098 336.927
-13.8232 84.572098 337.30099
-14.3841 84.556999 337.164
-3.30422 87.406303 350.48599
-4.4935198 87.304703 349.57001
-6.2293501 87.387703 350.242
-7.9279499 86.9319 348.63199
-8.4633398 86.387604 346.25699
-9.0415602 86.374603 346.13101
-9.61936 86.361397 346.005
-10.199 86.309898 345.54001
-10.5801 84.995201 341.11899
-12.7055 84.027901 337.24799
-13.8265 83.962799 336.655
-3.3104801 86.851898 350.48901
-6.2417598 86.793297 349.901
-7.9075799 86.151703 347.84399
-10.5306 83.874199 338.306
-11.096 83.824799 337.85199
-13.8321 83.425201 336.65399
-3.89224 86.135101 349.849
-4.47965 86.009903 349.12701
-8.4589195 85.436798 347.612
-9.0501003 85.311401 346.47101
-9.6313896 85.260803 346.00601
-10.5364 83.335403 338.306
-11.066 83.141098 337.74899
-12.7166 82.986099 337.569
-13.2774 82.902496 336.789
-13.8377 82.887398 336.65302
-4.4436598 85.3452 349.362
-9.0526304 84.797401 346.81
-9.9726105 82.879303 339.08401
-11.0375 82.423698 337.32401
-11.5996 82.409203 337.19199
-13.284 82.432404 337.43201
-13.8433 82.349602 336.65201
-14.403 82.334503 336.51401
-8.4920902 84.455803 347.914
-9.0550699 84.282303 347.14999
-9.9784403 82.339302 339.08401
-13.8489 81.811798 336.64999
-14.4086 81.7966 336.513
-5.0257101 84.299103 349.93201
-5.6437802 84.337502 349.42899
-9.0575104 83.766197 347.48999
-9.6466398 83.645103 346.34601
-10.5285 81.643997 338.453
-11.0456 81.414101 337.96799
-11.6087 81.399399 337.83499
-12.1713 81.384697 337.70099
-13.2953 81.354698 337.431
-9.6314096 83.055 346.63199
-10.1965 82.896698 345.77301
-11.6144 80.860603 337.83499
-12.177 80.845802 337.70099
-13.3009 80.815804 337.42999
-13.8622 80.800598 337.293
-5.0859299 83.5952 351.18701
-10.5593 80.737099 339.27802
-13.3073 80.340797 338.07501
-13.8678 80.261597 337.29099
-14.4286 80.2463 337.15302
-14.9095 79.877899 336.16299
-15.4678 79.862198 336.02301
-5.0568099 82.889297 351.07999
-5.6512899 82.841499 350.61499
-6.23769 82.828903 350.49399
-6.7877598 82.667 350.263
-9.6620502 82.025497 346.68701
-10.5629 80.228302 339.603
-11.0957 80.005203 338.71701
-11.6233 79.845703 338.48001
-13.313 79.800697 338.07501
-14.915 79.340103 336.16199
-5.0275998 82.183601 350.97299
-5.6220298 82.136299 350.508
-6.20823 82.123596 350.38699
-6.7940402 82.110802 350.26501
-7.3794498 82.097801 350.14099
-8.4417601 81.171898 346.39001
-9.6743097 81.405998 346.01199
-12.1919 79.321899 338.67001
-5.04179 81.592796 350.63101
-5.6283598 81.5802 350.51099
-6.21455 81.567398 350.38901
-6.8003402 81.554497 350.267
-7.3857398 81.541496 350.14301
-8.4523497 80.587898 346.05499
-9.0376501 80.508598 345.255
-10.7606 80.532303 345.53799
-11.139 79.161903 339.797
-12.1977 78.781303 338.67001
-13.8472 78.499802 337.18399
-14.4077 78.484299 337.04599
-5.6347299 81.023903 350.513
-6.2209001 81.011101 350.392
-6.8066802 80.9981 350.26901
-7.3920598 80.985001 350.14499
-9.0168304 79.882797 345.40799
-10.7667 79.981598 345.53799
-11.6643 78.474297 339.995
-12.2059 78.1502 337.698
-13.3296 78.119904 337.42499
-14.9352 77.7855 336.80099
-6.83109 80.342697 349.242
-9.0384903 79.504799 346.26599
-11.3488 79.416397 345.40701
-12.2118 77.610901 337.69699
-6.1880202 79.473801 348.80801
-6.8032198 79.515999 348.30301
-9.0407696 78.984901 346.60501
-9.6258497 78.908096 345.80099
-12.2168 77.100502 338.01999
-12.7421 76.912903 337.457
-14.3867 76.7229 336.93799
-6.1943798 78.919701 348.811
-6.7835898 78.874901 348.34698
-9.0509195 78.4021 346.26901
-10.2088 78.343002 345.67099
-10.7475 78.182198 345.43201
-11.3232 78.167702 345.29901
-12.2219 76.589203 338.34299
-14.9554 76.224503 337.44299
-6.2007799 78.365501 348.81299
-6.7899799 78.321198 348.349
-7.34092 78.130203 347.77499
-10.1399 77.499397 345.457
-11.167 76.4795 340.12299
-12.2268 76.076797 338.66699
-5.6089501 77.885597 349.621
-6.2072101 77.811203 348.815
-10.6061 75.951401 340.25699
-12.2328 75.535698 338.66699
-12.7967 75.492699 338.20499
-13.3593 75.477303 338.06699
-5.6153998 77.3302 349.62399
-6.2136598 77.256798 348.81699
-6.79668 77.243301 348.69299
-9.57586 76.4123 345.58899
-10.0417 75.450897 340.71701
-10.5747 75.264999 340.15201
-11.1435 75.222603 339.69199
-11.7107 75.180099 339.23099
-12.2377 75.021698 338.991
-6.2132802 76.731903 349.16101
-6.77249 76.513397 348.246
-7.3231802 76.324402 347.672
-9.5746202 75.918602 346.26501
-10.0417 74.961899 341.37399
-11.112 74.537102 339.58801
-12.8078 74.4646 338.854
-13.3714 74.449097 338.716
-13.9345 74.433601 338.577
-14.4971 74.417999 338.436
-15.0593 74.402298 338.29501
-6.2059202 76.234802 349.84799
-7.3236599 75.799698 348.01401
-10.0509 74.390503 341.04599
-13.3003 73.569702 337.85699
-6.21242 75.678596 349.85001
-6.8035202 75.636398 349.383
-10.0539 73.872597 341.375
-10.6306 73.7789 340.25699
-11.1218 73.478302 339.914
-13.3061 73.029099 337.85599
-6.81005 75.080498 349.38501
-7.3245301 74.747101 348.698
-11.1233 72.986198 340.56799
-11.6939 72.920097 339.77802
-13.312 72.488403 337.85501
-6.8529501 74.983803 351.67499
-10.0631 72.808296 341.70499
-10.6352 72.767998 341.242
-6.2108002 74.090599 350.88901
-6.7971601 74.076698 350.76401
-7.3950701 74.008598 349.94901
-10.6149 72.136101 341.28201
-11.1377 71.873703 340.241
-11.6363 71.453697 338.26801
-6.8168602 73.465401 350.078
-7.4016299 73.451401 349.95099
-7.9913101 73.410896 349.48001
-11.1391 71.377899 340.897
-12.2052 70.897301 338.13101
-7.4082298 72.894096 349.953
-12.2112 70.3563 338.13
-12.2132 69.882797 339.104
-16.2395 70.123596 339.30499
-6.7606802 71.503502 349.86401
-7.9512401 71.376602 348.241
-6.7603798 70.970596 350.20999
-7.8979998 70.462601 347.00601
-12.3729 69.517799 341.82401
-13.3525 68.787598 339.151
-13.9161 68.771698 339.01001
-14.4792 68.755699 338.86801
-7.9101601 69.886299 346.66901
-12.5993 70.194397 347.85999
-12.8692 68.649597 341.142
-13.922 68.228401 339.009
-14.4851 68.212402 338.867
-15.0477 68.196297 338.724
-7.3254099 69.393097 347.47699
-7.9222598 69.311096 346.33301
-12.5633 69.5392 348.43701
-12.8753 68.103302 341.142
-15.0536 67.652901 338.72299
-7.8947701 68.657799 346.45099
-9.6495104 68.779999 346.95499
-12.609 69.148499 348.89099
-13.3965 67.278297 339.655
-13.934 67.141502 339.00699
-15.0595 67.109398 338.72101
-9.6560297 68.2258 346.957
-12.6154 68.590103 348.89099
-13.1161 68.220398 347.50101
-13.3756 66.653198 339.802
-9.6705103 67.6297 346.28
-12.5414 67.721703 348.32599
-7.3327999 67.238602 348.50601
-7.9261198 67.182701 347.69501
-8.44384 66.822098 346.32999
-9.6378298 66.934097 346.173
-12.5478 67.164101 348.32599
-13.4673 65.882599 340.67001
-13.9523 65.547897 339.659
-15.082 65.553101 340.02899
-15.6871 65.677696 339.98999
-7.3394699 66.6828 348.508
-7.92699 66.647797 348.03699
-8.5180702 66.592903 347.22601
-9.6050701 66.2388 346.06601
-12.9435 65.567703 342.23999
-13.9583 65.039597 340.315
-15.652 64.990997 339.883
-7.3461699 66.1269 348.51001
-7.93367 66.0924 348.039
-8.5247402 66.038498 347.22699
-9.1037703 66.023399 347.095
-12.3403 64.894203 342.27301
-13.479 64.826202 341.32901
-7.3529 65.5709 348.51199
-7.9179702 65.429497 347.741
-12.9177 64.294701 341.47
-13.4852 64.278801 341.32901
