ply
format ascii 1.0
comment PCL generated
element vertex 1545
property float x
property float y
property float z
element camera 0
property float view_px
property float view_py
property float view_pz
property float x_axisx
property float x_axisy
property float x_axisz
property float y_axisx
property float y_axisy
property float y_axisz
property float z_axisx
property float z_axisy
property float z_axisz
property float focal
property float scalex
property float scaley
property float centerx
property float centery
property int viewportx
property int viewporty
property float k1
property float k2
end_header
-51.253551 115.6856 337.42697
-51.637611 115.59437 338.47241
-50.533859 115.91289 340.88577
-48.280182 116.4326 333.64725
-48.589859 116.3559 334.19104
-48.900642 116.27918 334.73383
-50.115158 115.6273 336.82483
-50.744534 115.34934 337.37292
-48.321548 115.95362 334.15939
-49.010162 115.78868 335.75949
-50.724739 114.88271 337.36911
-51.038605 114.80602 337.9054
-49.811043 115.17531 342.8385
-47.741428 115.62612 333.58282
-48.052109 115.54938 334.12756
-48.363773 115.47362 334.67139
-50.529556 114.46773 337.85205
-50.600697 114.4541 338.3638
-50.671936 114.43952 338.87524
-50.133217 114.60789 341.85364
-48.095402 115.06933 334.64005
-48.408165 114.99352 335.18332
-49.631649 114.3414 337.2753
-50.264145 114.06427 337.82333
-47.891125 114.65258 335.12509
-47.95726 114.6401 335.64145
-48.091515 114.61493 336.67383
-49.506329 113.78731 337.74414
-50.068836 113.6463 338.3071
-50.141048 113.63262 338.81955
-49.523071 113.81285 341.2894
-47.058388 114.38754 334.52136
-47.373047 114.31065 335.06659
-49.428013 113.35802 340.77252
-49.503094 113.34324 341.28561
-49.580185 113.3274 341.79855
-49.807472 113.15868 342.80652
-46.852947 113.96779 335.0079
-47.168671 113.8919 335.55304
-49.0425 112.96194 338.20023
-49.60796 112.82285 338.7634
-46.964176 113.47208 336.04007
-47.03233 113.45947 336.55786
-46.668266 113.55994 337.54169
-49.166847 112.46399 339.22455
-49.140453 112.48199 340.74222
-49.464329 112.40398 341.27841
-41.803425 115.22282 331.517
-42.375324 115.08109 332.1041
-46.375957 113.13986 335.46375
-46.647251 113.08736 337.53796
-48.623165 112.1369 340.69235
-48.947922 112.05886 341.22943
-49.077526 111.79932 342.71341
-40.938431 115.11373 330.922
-41.781315 114.74528 331.51315
-45.706764 113.06834 335.43619
-46.445656 112.66445 338.02704
-48.604256 111.66628 340.68869
-41.185165 114.40755 330.91995
-41.758102 114.26778 331.50931
-41.817123 114.25729 332.03595
-44.994034 112.77251 335.87112
-48.335514 111.25692 340.6618
-48.410595 111.24213 341.17664
-41.478497 113.8549 331.47467
-41.867989 113.6426 332.01746
-41.927929 113.63111 332.54395
-42.319374 113.41778 333.08481
-45.29356 112.22184 336.41522
-45.100605 112.05156 339.42834
-48.468746 110.75464 341.68781
-48.123329 110.84547 342.67303
-40.881371 113.5162 330.88083
-41.197826 113.44205 331.43994
-41.97974 113.01537 332.5253
-42.040684 113.00484 333.05139
-44.753948 111.65322 338.87906
-45.080631 111.57594 339.42465
-47.545334 110.49862 340.58417
-47.8722 110.42145 341.12354
-47.949226 110.40559 341.63901
-40.600731 113.10235 330.84549
-40.917122 113.0272 331.40521
-44.545162 111.43752 334.78931
-45.252571 111.27366 336.40811
-44.805843 111.16281 339.39639
-47.95092 109.92019 340.112
-47.4277 110.05559 341.59003
-40.577488 112.62285 330.84161
-40.636482 112.61235 331.3703
-41.359398 112.19813 331.92987
-41.420349 112.18758 332.45712
-41.481293 112.17606 332.98419
-41.543221 112.1645 333.51117
-44.524117 110.96293 334.78571
-44.46949 110.9855 336.32361
-45.192871 110.57361 336.86569
-48.18169 109.38825 340.1322
-40.755886 112.09108 330.34125
-44.194798 110.57143 336.29303
-48.161743 108.91663 340.12869
-48.237766 108.90079 340.6438
-40.93428 111.56029 329.84158
-47.493137 108.59622 339.04471
-47.892971 108.50526 340.10117
-40.65266 111.14449 329.80533
-41.042061 110.93419 330.35089
-41.173969 110.78654 330.86377
-41.232937 110.77505 331.39136
-40.637966 110.92751 332.88284
-40.50423 110.96596 333.90994
-44.459972 109.53923 334.77481
-44.593952 109.51193 335.81833
-44.946922 109.19559 337.34909
-47.474106 108.1246 339.04108
-47.548241 108.10878 339.55762
-47.623226 108.09296 340.07382
-47.698273 108.07716 340.58975
-39.853775 110.85317 329.7038
-41.092892 110.3195 330.33237
-41.150818 110.30804 330.85995
-41.209721 110.29653 331.38754
-46.732391 108.05869 338.50491
-47.203354 107.71231 339.01266
-40.090096 110.31087 329.73288
-40.791252 109.91833 332.37753
-46.932625 107.29808 338.98425
-47.006638 107.28224 339.50143
-47.408489 107.19128 340.55914
-39.807346 109.89312 329.69647
-40.457317 109.62202 330.27557
-40.847881 109.41265 330.82074
-40.708103 109.45032 331.84573
-44.101482 107.94763 335.1969
-44.169422 107.93294 335.7193
-44.237354 107.91924 336.24161
-44.447205 107.875 337.80716
-46.734753 106.86806 339.47321
-47.061584 106.79284 340.01505
-47.137638 106.77699 340.53183
-39.265034 109.53614 329.62689
-39.321922 109.52464 330.15756
-40.04887 109.11626 330.72116
-40.62608 108.98329 331.31366
-40.549049 109.00733 332.86798
-43.638855 107.5764 335.65988
-43.91655 107.51742 337.75131
-46.003548 106.63725 338.90512
-46.715721 106.39442 339.4697
-46.614944 106.42007 340.48071
-39.038044 109.10492 330.12128
-40.085598 108.62521 331.24677
-40.268253 108.58852 332.83411
-43.754597 107.0704 336.70233
-45.939262 106.09496 339.39182
-46.518887 105.96233 339.95947
-46.59491 105.94647 340.47714
-39.072636 108.61292 330.64856
-39.802727 108.20546 331.2114
-40.122231 108.13215 331.7724
-40.245987 108.10795 332.83044
-43.596607 106.62326 335.65265
-43.664516 106.60857 336.17587
-43.734497 106.5938 336.69873
-43.691433 106.60693 338.24066
-46.070141 105.58759 340.42566
-39.579735 107.77213 331.70599
-39.702389 107.74693 332.76584
-43.201763 106.2333 336.64075
-43.414482 106.18789 338.21118
-45.243309 105.53387 339.37122
-45.467457 105.24473 339.85431
-45.797184 105.17039 340.39804
-38.825329 107.69811 331.14035
-39.680092 107.26539 332.76215
-40.743546 106.78928 335.96002
-44.7146 105.17319 339.31778
-38.684345 107.23969 330.07394
-39.017254 107.00536 330.60571
-39.474316 106.82263 331.16852
-39.135521 106.90338 332.69711
-42.787701 105.36366 337.62766
-42.932423 105.33195 338.67584
-41.971031 105.54849 339.09766
-39.131596 106.41241 330.60208
-39.452049 106.34109 331.16495
-39.512871 106.32849 331.69513
-38.715462 106.51305 333.69464
-40.845901 105.67511 336.46283
-44.134388 104.34071 340.80084
-39.42981 105.85956 331.16138
-39.750229 105.78819 331.72299
-40.072788 105.71685 332.28369
-40.900734 105.05634 336.4415
-40.970531 105.04153 336.96893
-38.487598 105.70322 330.54608
-39.145779 105.4368 331.12564
-40.949268 104.55994 336.96545
-41.910271 104.10668 339.08698
-38.60017 105.07088 331.05771
-38.922695 104.99944 331.62109
-38.577808 104.58832 331.05417
-38.900333 104.51791 331.61755
-39.038227 104.36708 332.13159
-39.623463 104.23884 332.72421
-40.456829 103.6953 337.43161
-42.845993 102.68891 341.18933
-37.767414 104.27735 330.95331
-38.353657 104.15002 331.55038
-39.352684 103.69155 332.14246
-39.936916 103.56437 332.73459
-40.769207 103.1401 337.98273
-41.031021 102.92137 338.49344
-41.849541 102.66384 339.07663
-41.924374 102.64692 339.60214
-39.591141 103.15327 332.17035
-39.653984 103.13961 332.7001
-40.239338 103.01243 333.29074
-39.01981 103.2724 337.85614
-41.569382 102.23891 339.04739
-41.904026 102.1653 339.59866
-38.984493 102.7979 331.57315
-39.308117 102.72748 332.1355
-41.623962 101.7403 339.56982
-42.26836 101.35826 341.13068
-39.285854 102.24592 332.13202
-39.610359 102.17549 332.69336
-40.261578 102.03556 333.81277
-38.642395 102.37495 337.29135
-38.713108 102.35903 337.82224
-40.670055 101.57788 338.98203
-41.082771 101.36903 339.5155
-38.739902 101.87399 332.06537
-39.664154 101.55772 332.67233
-39.652851 101.67922 333.21964
-39.869827 101.39214 333.71353
-39.936665 101.37736 334.24268
-38.620953 101.88938 337.28787
-38.972023 101.6526 337.81113
-39.974129 101.35992 338.41751
-40.047798 101.34295 338.94608
-41.062458 100.88641 339.51212
-41.400185 100.81371 340.06393
-38.717606 101.39143 332.06189
-39.091312 101.05759 337.80392
-39.427933 100.98584 338.36075
-39.764591 100.91407 338.91647
-41.118961 100.38577 340.03528
-41.612492 100.15879 341.09219
-38.433453 100.9627 332.0267
-38.758968 100.8932 332.58957
-39.333794 100.5182 337.8277
-39.406551 100.50126 338.35745
-39.744183 100.42945 338.91318
-40.082825 100.35768 339.46796
-40.575695 100.01154 339.98145
-38.211067 100.51931 332.52338
-38.801491 100.39591 333.11722
-39.010067 100.22917 334.16061
-39.416798 100.02336 334.70236
-38.61367 100.23873 337.76587
-39.386147 100.01661 338.35416
-40.293343 99.58165 339.95261
-40.895058 99.456131 340.53036
-37.092419 100.76668 322.4946
-38.837936 99.639626 338.297
-39.440449 99.514015 338.88031
-40.086857 99.133698 340.45187
-40.953484 98.954414 341.05396
-37.21727 100.01682 322.46109
-37.265121 100.00558 322.99457
-33.362461 101.43491 328.41446
-37.968185 99.58931 333.01743
-38.296848 99.520706 333.58032
-38.817497 99.154007 338.29364
-38.891262 99.137001 338.82416
-39.370663 98.956772 339.37555
-39.726738 98.720879 339.89481
-40.067425 98.649071 340.44867
-37.192009 99.535393 322.45755
-37.76125 99.418358 323.06891
-33.262146 100.79846 328.36462
-33.434021 100.75851 329.98477
-36.340137 99.676201 331.82425
-36.934437 99.553604 332.42291
-37.482845 99.196732 333.48468
-38.146027 99.058304 334.61053
-38.532093 98.722221 338.26334
-40.047047 98.164459 340.44537
-40.388741 98.093124 340.99817
-37.167728 99.053902 322.45398
-37.663254 98.793869 323.01868
-33.507286 100.2539 328.39661
-33.680168 100.21396 330.01547
-36.316681 99.189674 331.82092
-36.92646 98.903053 332.38455
-37.395664 98.725937 332.94818
-37.461403 98.711136 333.48135
-37.527107 98.695358 334.0144
-37.980801 98.342201 338.20572
-38.585388 98.218399 338.79095
-39.842331 97.713737 340.94537
-37.861938 98.189621 323.03098
-37.910744 98.177368 323.56332
-33.562817 99.627068 328.37558
-33.656586 99.723412 330.01215
-37.043762 98.308975 332.37955
-37.373306 98.240578 332.94489
-37.693382 97.908073 338.17511
-38.034039 97.837685 338.73416
-38.374722 97.766975 339.29211
-39.138573 97.370079 339.83334
-39.558025 97.28083 340.91724
-33.711113 99.095673 329.99072
-36.005894 98.268326 331.78195
-36.756462 97.875542 332.34424
-36.821163 97.859955 332.87851
-37.484253 97.723091 334.00787
-36.624607 97.885109 335.48843
-38.354191 97.280067 339.28894
-39.538502 96.795074 340.914
-39.882271 96.72422 341.46738
-37.079945 97.369164 323.43991
-37.391483 97.305061 324.01199
-33.380611 98.550659 328.85559
-33.438259 98.536743 329.39542
-35.936394 97.546013 332.24442
-36.532825 97.425644 332.84354
-36.864384 97.357491 333.40927
-37.196892 97.289139 333.97391
-38.067776 96.845192 339.25931
-39.254105 96.360817 340.88583
-39.861771 96.238708 341.46414
-37.367138 96.82299 324.00858
-36.510433 96.938576 332.84024
-36.842911 96.870598 333.40604
-37.17453 96.802582 333.9707
-37.781303 96.409447 339.22977
-38.46909 96.151192 339.79254
-38.968601 95.925926 340.85751
-33.333481 97.569984 328.84882
-33.449627 97.541328 329.92838
-36.287682 96.486855 333.34012
-38.684052 95.490082 340.82919
-39.293793 95.368996 341.40872
-36.220253 96.225189 324.40402
-35.666721 96.117836 332.7381
-35.999287 96.05043 333.30542
-36.746864 95.619781 339.65018
-38.663643 95.002838 340.82596
-39.087502 94.79686 341.35895
-34.404495 96.402466 324.21378
-35.70985 95.61306 333.27069
-37.955761 94.654305 339.70938
-38.033401 94.635361 340.24094
-36.172741 95.331711 324.9436
-36.366917 94.871147 333.84573
-37.045643 94.618401 334.42188
-37.417156 94.624504 335.00845
-35.738358 95.066719 339.60733
-38.171139 94.108665 341.29996
-34.560421 95.146896 324.71124
-34.878979 95.083115 325.28674
-33.238178 95.607582 328.83563
-33.296738 95.592789 329.37549
-35.664768 94.635567 333.26422
-36.758221 94.180954 334.38794
-37.093807 94.113884 334.95206
-37.429424 94.046761 335.51508
-35.447823 94.625977 339.57773
-38.417683 93.570778 341.32175
-33.684994 94.82325 324.05301
-34.536018 94.659935 324.70786
-34.854485 94.596336 325.28345
-35.174015 94.532448 325.85815
-33.293709 94.981178 328.81387
-33.534004 94.920074 330.97244
-35.642315 94.146721 333.26111
-35.70985 94.129837 333.79694
-36.735737 93.693268 334.3847
-37.141945 93.608879 335.48233
-37.384239 93.360657 340.19388
-38.132153 93.13195 341.29367
-33.660435 94.335075 324.04962
-34.244694 94.222206 324.66599
-34.564194 94.158783 325.24225
-34.672413 94.130287 326.31747
-33.529018 94.30883 330.41074
-33.59045 94.29306 330.9502
-35.419346 93.690346 333.76242
-36.448196 93.254532 334.35092
-37.192093 93.103409 336.01242
-35.393654 93.497986 339.53442
-37.418201 92.780518 340.17615
-38.111656 92.643448 341.29071
-33.686569 93.832993 324.58524
-34.00705 93.769714 325.16269
-34.593288 93.657112 325.77664
-34.647945 93.642693 326.31412
-32.301643 94.048355 329.18723
-33.443764 93.833458 329.86804
-33.566929 93.801826 330.94699
-35.891655 92.863876 334.28592
-36.228279 92.797493 334.85165
-36.56591 92.730957 335.41635
-36.709103 92.69487 336.48441
-35.546169 92.876755 339.52463
-36.163879 92.759087 340.11252
-37.638393 92.232018 341.76907
-33.66201 93.344498 324.582
-33.981514 93.281456 325.15936
-32.819809 93.456924 329.2547
-33.421188 93.342438 329.86484
-35.939732 92.357071 334.81812
-36.1525 92.302994 336.423
-36.143318 92.268066 340.10944
-36.921448 91.878975 340.65063
-33.690125 92.841644 325.11777
-34.011616 92.778557 325.6947
-33.06617 92.9161 329.28683
-33.397636 92.851204 329.86172
-33.45916 92.835258 330.40128
-33.520683 92.819099 330.9407
-34.963482 92.165512 334.20682
-35.987743 91.849838 335.35004
-36.059368 91.831596 335.8851
-36.131969 91.81324 336.41998
-36.204453 91.79483 336.95459
-35.233822 91.94175 339.49146
-35.852566 91.825356 340.08008
-36.90089 91.38884 340.64749
-37.330139 91.300827 341.73813
-33.45129 92.386345 325.61554
-34.041714 92.275154 326.22998
-34.175453 92.126411 326.75015
-33.373993 92.360001 329.85864
-33.435577 92.343918 330.39813
-33.498077 92.327652 330.93762
-33.561676 92.311081 331.47684
-35.82616 91.396378 334.27652
-36.162693 91.330879 334.84244
-35.573261 91.419258 336.35828
-35.645771 91.400574 336.89377
-34.942123 91.49752 339.46136
-35.561848 91.381714 340.05066
-35.641407 91.361946 340.58594
-37.042442 90.858284 341.71014
-32.372433 92.250145 324.96786
-32.890022 91.992714 325.53592
-32.749004 91.981209 329.24524
-35.535473 90.954414 334.24234
-36.282986 90.736534 334.83566
-36.559063 90.641914 335.38336
-35.271069 90.937271 340.02115
-36.034725 90.715675 340.60236
-36.402981 90.482468 341.12335
-36.752666 90.414978 341.68198
-32.595554 91.550072 325.49432
-32.920033 91.487373 326.073
-32.785877 91.472939 329.78256
-36.616699 90.01889 335.35934
-34.707142 90.539612 339.96478
-35.057804 90.472252 340.52759
-36.382359 89.991287 341.12036
-36.733086 89.923958 341.67899
-32.085709 91.13887 325.95563
-32.950924 90.981461 326.61005
-33.355579 90.78476 327.16821
-32.762234 90.98069 329.77966
-32.823757 90.964218 330.32004
-33.046623 90.677742 330.82031
-33.030922 90.795654 331.38052
-35.223248 90.021255 334.20505
-35.038162 89.978989 340.52469
-30.681513 91.254623 325.31137
-31.086964 91.057388 325.87503
-32.386509 90.584488 326.5318
-32.195683 90.582588 329.70636
-35.271324 89.512512 334.73828
-35.77039 89.179016 335.26215
-36.110981 89.114227 335.82739
-36.451694 89.049286 336.39154
-35.386765 89.253128 341.04388
-35.883255 89.080132 341.59735
-35.965775 89.059357 342.13168
-30.736008 90.62635 325.28995
-31.062405 90.564003 325.87201
-31.876513 90.170433 326.99503
-32.204956 90.107872 327.5737
-33.075359 89.951897 328.22421
-32.172009 90.089409 329.70334
-32.233475 90.072708 330.24466
-32.296947 90.05574 330.78595
-35.625759 88.696411 336.29974
-35.321125 88.679573 341.54346
-36.216412 88.521095 342.15356
-30.710289 90.132614 325.28683
-31.037663 90.070518 325.86887
-31.365099 90.008255 326.44995
-31.910362 89.661743 327.53381
-32.670212 89.284943 328.10959
-32.920551 89.356339 328.70569
-33.331223 89.15979 329.26172
-33.1842 89.171753 330.30582
-32.482391 89.392761 331.84454
-32.467735 89.510117 332.40619
-31.847902 89.596764 333.93274
-34.760414 88.603561 335.20746
-36.196796 88.028862 342.15076
-30.574015 89.416733 325.20709
-31.093164 89.442848 325.84695
-31.227819 89.293037 326.37088
-31.284306 89.277054 326.91376
-31.34177 89.260971 327.45648
-32.646568 88.793007 328.10645
-32.976082 88.730759 328.68301
-33.30761 88.668358 329.2587
-32.605167 88.719604 334.49142
-34.540161 88.138329 335.71118
-35.118813 87.78524 336.77036
-35.265137 87.860641 338.40073
-35.008625 87.738159 341.51184
-35.905865 87.581665 342.1228
-30.875732 88.861198 325.78635
-31.203138 88.799522 326.36786
-31.259565 88.783478 326.91064
-31.317152 88.767189 327.45343
-32.682468 88.28418 328.64407
-33.283997 88.176842 329.25571
-32.855556 88.179298 334.52011
-33.199078 88.115105 335.09094
-34.247429 87.690926 335.67789
-35.324696 87.233742 338.37524
-34.716686 87.289146 341.48315
-35.61496 87.133644 342.09494
-30.578119 88.412697 325.74454
-30.633537 88.396622 326.2883
-30.962927 88.334999 326.86993
-32.386776 87.836769 328.60474
-32.989311 87.729973 329.21716
-32.217167 87.793907 333.91302
-32.559681 87.729996 334.4856
-33.954575 87.242897 335.64456
-35.92099 86.63298 338.9632
-35.051735 86.729088 342.04169
-30.608826 87.902168 326.28534
-30.938248 87.840813 326.86682
-31.054152 87.80761 327.95319
-32.092091 87.388512 328.56552
-32.695637 87.282318 329.17859
-32.757095 87.264915 329.71887
-32.820602 87.247276 330.25916
-32.948624 87.211746 331.33939
-32.672256 87.227837 333.43381
-32.335304 87.261024 334.99213
-34.474297 86.661301 335.70258
-34.758785 86.279228 342.01337
-30.640541 87.391098 326.82608
-30.697973 87.37439 327.36969
-30.756475 87.357666 327.91333
-31.088886 87.296036 328.49341
-32.400951 86.833855 329.13977
-32.733517 86.772202 329.716
-32.877171 86.620987 330.23566
-33.021931 86.469429 330.75497
-32.925961 86.71862 331.33655
-32.581074 86.752083 332.89053
-32.730774 86.599098 333.40936
-33.213215 86.498131 335.06061
-33.639145 86.300232 335.60834
-35.261734 85.757027 338.36667
-34.465778 85.828308 341.98523
-30.792156 86.845375 328.45392
-33.617455 85.80645 335.60544
-35.240196 85.264755 338.36374
-35.859188 85.158112 338.95499
-34.802807 85.268188 342.54373
-30.159842 86.455193 327.83322
-30.828785 86.332649 328.99451
-32.143993 85.873161 329.63943
-32.206432 85.855247 330.18063
-33.322525 85.355705 335.5719
-34.102917 84.981796 336.12625
-34.718792 84.876244 336.72348
-35.077297 84.752434 340.98495
-34.509769 84.816338 342.5159
-28.291742 86.609253 328.21399
-30.254969 85.924316 328.91901
-32.120289 85.379349 329.63666
-31.991898 85.27079 330.1214
-32.328461 85.209724 330.69781
-32.393921 85.191322 331.23868
-32.5406 85.039093 331.75803
-32.608013 85.020233 332.2984
-32.956184 84.923851 334.99875
-33.028603 84.904129 335.53836
-34.155689 84.46817 336.66104
-34.656349 84.36422 338.30148
-34.763367 84.278313 342.53815
-28.349073 85.975334 328.19067
-28.686398 85.914116 328.77478
-30.017473 85.453453 329.42441
-32.584278 84.526093 332.29559
-32.65276 84.507019 332.83597
-32.933453 84.429092 334.99597
-33.006973 84.409241 335.53571
-34.481701 83.912148 337.22519
-34.635605 83.870827 338.29874
-34.877663 83.582077 338.78799
-34.9571 83.560799 339.32401
-35.578228 83.456223 339.91431
-35.660889 83.54689 341.0076
-34.742622 83.783424 342.53546
-28.624691 85.339958 328.74567
-29.082212 85.219719 329.33401
-30.331186 84.895348 330.00192
-32.630032 84.01268 332.8331
-32.699455 83.993233 333.37332
-32.840355 83.954117 334.45343
-32.784397 83.93631 336.0419
-33.296616 83.606064 336.5654
-33.916492 83.502007 337.16345
-35.179825 83.002617 340.92813
-28.586414 84.6726 329.23724
-29.479036 84.526184 329.892
-31.763649 83.906624 331.72473
-31.719315 83.66256 332.18884
-32.334156 83.559799 332.79721
-32.676792 83.49868 333.37061
-32.817627 83.459259 334.45071
-32.489342 83.482452 336.00858
-33.622536 83.049095 337.13107
-33.972252 82.986954 337.69852
-28.561548 84.17321 329.23441
-29.518591 84.009537 330.43469
-31.148308 83.249763 332.1181
-32.311398 83.064835 332.79437
-32.654034 83.004013 333.36795
-32.724495 82.984261 333.90808
-32.794868 82.964409 334.44803
-32.542023 82.965981 336.54617
-34.975529 82.058739 339.85141
-35.057041 82.036926 340.38721
-35.139435 82.014938 340.92264
-34.301228 82.110733 342.42667
-27.980501 83.758133 329.1582
-28.600006 83.655479 329.77853
-28.940472 83.594994 330.36111
-32.084854 82.590919 333.29956
-31.970741 82.551865 336.48291
-32.522881 82.297791 337.03204
-33.109882 82.119812 337.60522
-33.619419 82.015221 339.24969
-34.575016 81.601303 340.86679
-28.728634 83.151031 328.71881
-28.916584 83.095566 330.35828
-32.814831 81.664253 337.57309
-33.440868 81.562393 338.17053
-33.51936 81.541031 338.70892
-34.145401 81.439201 339.30295
-28.970125 82.467209 328.71243
-33.419147 81.066818 338.16791
-33.853203 80.872353 338.71045
-34.205971 80.811043 339.27597
-34.533527 80.611557 340.86133
-33.612953 80.948135 342.95605
-28.845432 81.88607 328.67007
-31.338041 81.261528 330.00705
-31.743023 81.182938 331.12631
-31.810467 81.16333 331.66782
-31.877817 81.143532 332.20917
-33.612968 80.621292 333.94931
-28.821514 81.387146 328.66742
-29.160059 81.32811 329.25055
-31.041128 80.805161 329.96857
-31.855089 80.647789 332.20667
-32.975281 80.225784 333.34253
-33.319046 80.166328 333.91452
-33.736237 80.086212 335.0235
-32.553574 80.19265 338.07547
-33.021503 80.031799 342.90079
-29.412401 80.789772 329.28452
-31.290571 80.270119 330.0018
-32.681232 79.769615 333.30707
-33.378635 79.540192 333.88895
-33.532368 79.387505 334.40445
-33.795795 79.46006 334.99753
-32.807167 79.656784 338.10208
-33.325615 79.330345 338.62079
-33.679359 79.269928 339.18744
-33.760689 79.24765 339.72516
-33.843117 79.225243 340.26266
-33.926552 79.202812 340.79996
-33.360409 79.360764 342.89731
-29.388542 80.291237 329.28183
-30.993534 79.812698 329.96338
-31.687733 79.584198 330.5546
-31.836454 79.432449 331.07391
-32.041561 79.37162 332.69736
-32.658535 79.274666 333.30453
-33.583122 78.872215 334.94022
-33.385162 78.811996 339.1564
-29.391134 79.697784 329.79767
-31.881048 78.916695 331.61249
-31.471222 78.951561 332.6272
-32.362507 78.817276 333.26892
-33.253677 78.308319 340.20258
-33.337143 78.285675 340.74075
-32.407047 78.612762 342.84256
-30.185577 78.913864 330.39386
-32.066444 78.3591 333.23315
-32.766811 78.131752 333.81601
-32.839165 78.110664 334.35562
-32.912651 78.089409 334.89508
-32.823151 78.144127 338.63394
-33.1506 77.834007 339.66162
-33.232903 77.811378 340.20007
-33.316338 77.788551 340.73822
-32.558826 77.9562 343.35269
-30.22904 78.395737 330.93552
-30.738329 78.073853 331.46829
-31.080965 78.015991 332.04575
-31.769318 77.900085 333.1972
-31.975019 77.758568 338.54477
-32.854351 77.373856 339.63098
-32.745598 77.365204 340.6814
-29.929991 77.934792 330.89767
-31.818886 77.382278 333.73605
-30.767195 77.430252 337.88306
-31.758152 77.274605 339.05426
-28.398386 78.13369 330.29739
-28.908558 77.811508 330.83435
-29.41983 77.489471 331.36926
-31.521788 76.921829 333.70081
-31.594082 76.900467 334.24225
-31.942789 76.84269 334.8158
-30.944468 76.915771 337.3681
-31.022774 76.893509 337.91034
-31.459829 76.812103 339.02307
-31.818581 76.752937 339.59247
-32.344109 76.428246 340.10925
-32.236271 76.418236 341.16132
-31.943153 76.530533 343.29486
-29.131788 77.07148 329.18527
-29.197065 77.051201 329.73087
-29.53351 76.948166 332.45688
-30.158451 76.854118 333.06931
-30.672834 76.5326 333.59863
-31.571262 76.40303 334.23978
-30.922562 76.4161 337.3656
-31.000837 76.393753 337.9079
-31.080153 76.371269 338.44989
-31.16151 76.34874 338.99185
-29.107933 76.572144 329.18283
-29.172169 76.551804 329.72836
-28.953894 76.520622 332.38568
-29.024204 76.499466 332.9314
-29.652197 76.405823 333.54407
-30.445835 76.048141 334.10623
-31.071966 75.955025 334.71436
-31.146305 75.933197 335.25647
-30.900658 75.916321 337.36319
-30.978964 75.893852 337.90543
-31.059254 75.871353 338.44757
-31.139605 75.848648 338.98947
-29.148312 76.052261 329.72604
-29.280876 76.010933 330.81674
-29.348166 75.990105 331.36206
-29.417408 75.969193 331.9071
-28.793114 76.012993 333.44095
-30.322962 75.487251 337.30017
-30.95709 75.393875 337.90317
-31.037411 75.371246 338.44516
-31.366627 75.279388 340.61145
-31.812763 75.088074 341.15295
-31.704876 74.967033 341.64017
-31.668648 75.09687 343.2796
-28.440222 75.664444 328.55713
-28.336861 75.906891 329.14938
-28.568695 75.623413 329.65009
-29.189699 75.531975 330.2691
-29.340343 75.379692 330.79102
-29.40864 75.358612 331.33609
-29.476875 75.337532 331.88104
-28.490826 75.546936 333.40482
-29.993876 75.075798 335.12332
-29.664822 75.079384 336.69223
-30.301025 74.986465 337.2977
-30.657701 74.92881 337.87088
-30.313885 74.896049 341.04126
-28.415388 75.164169 328.55472
-28.88851 75.067062 330.23053
-28.982569 74.775551 331.78467
-28.331905 75.03653 334.4621
-30.27903 74.485596 337.29538
-30.635765 74.428238 337.8685
-30.994577 74.37085 338.44052
-29.817024 74.439758 341.52753
-28.1763 74.677689 329.06165
-28.93045 74.49482 332.922
-28.308931 74.533585 334.45987
-30.256088 73.984627 337.29309
-30.335371 73.961861 337.83627
-30.415691 73.938927 338.37924
-31.053999 73.847443 338.9801
-29.796036 73.936432 341.52518
-31.003536 73.775162 342.17453
-30.899511 73.761566 343.23138
-31.438162 73.437317 343.74265
-34.303448 72.518089 356.58231
-28.663774 73.859589 329.59619
-28.907507 73.993385 332.91977
-28.005486 74.065033 334.42441
-29.080618 73.785316 335.58932
-28.95459 73.774582 336.64856
-29.246656 73.685127 337.20578
-30.034973 73.494537 337.80383
-34.652794 71.848625 356.56189
-27.335085 73.983704 325.20749
-29.537273 73.237289 330.24942
-30.432707 73.115791 330.90137
-27.981504 73.561508 334.42212
-28.055689 73.539314 334.96924
-28.938803 73.162239 336.07516
-29.017048 73.139465 336.62061
-29.09523 73.116661 337.16574
-29.73354 73.026398 337.77136
-30.093237 72.969742 338.34497
-30.454 72.913086 338.91754
-34.722336 71.212898 356.5274
-28.283789 73.231873 325.85138
-29.235931 72.770714 330.21078
-29.857027 72.683205 330.8277
-27.958439 73.057961 334.4198
-28.032625 73.035568 334.96692
-28.108854 73.0131 335.51389
-30.914221 72.152718 337.29568
-31.075779 72.106056 338.37952
-30.469732 72.31118 342.65704
-30.947605 72.063858 343.72043
-28.364391 72.493385 325.25793
-28.617626 72.569611 325.86682
-27.72817 72.565033 334.93198
-30.892317 71.652504 337.29355
-31.412746 71.549881 338.94803
-30.146545 71.583931 343.08936
-30.517412 71.526901 343.65732
-34.101372 70.428978 355.47495
-34.57806 70.236504 355.99039
-34.522923 70.213173 357.03958
-28.339466 71.993889 325.25565
-28.675112 71.940895 325.84213
-28.2449 71.963493 326.85513
-28.7006 71.813309 330.67917
-29.324717 71.726822 331.29645
-29.949871 71.640419 331.91144
-27.498877 72.070862 335.4447
-27.574953 72.048096 335.99243
-30.592806 71.18412 337.26062
-31.031998 71.105179 338.37512
-31.11421 71.081535 338.91663
-30.777113 70.991425 343.68033
-34.11367 69.76947 356.49069
-28.313656 71.494339 325.25342
-28.6493 71.441536 325.83997
-28.7728 71.399368 326.93161
-29.093596 71.236107 331.80396
-29.68383 71.073891 332.39059
-27.475809 71.56591 335.44263
-27.551949 71.543015 335.99023
-30.570963 70.683205 337.25848
-30.105543 70.576363 343.08472
-30.75713 70.488365 343.67816
-33.140213 69.650185 355.45609
-34.097652 69.266594 356.48819
-34.489983 69.208267 357.03433
-28.747875 70.899689 326.9295
-27.323509 71.046944 336.50397
-30.270353 70.213425 337.22565
-30.906771 70.127647 337.82907
-30.988068 70.103912 338.37079
-31.071379 70.080002 338.91241
-31.238945 70.032104 339.99496
-30.737085 69.985115 343.67596
-33.123222 69.146133 355.45361
-33.688457 68.821609 355.9379
-34.080666 68.763618 356.4855
-34.473019 68.705711 357.03174
-28.721941 70.399902 326.92743
-28.55994 70.273529 332.27502
-28.910603 70.219719 332.85556
-29.969833 69.742737 337.1926
-30.607258 69.657501 337.79666
-30.967199 69.603096 338.36871
-31.217957 69.530975 339.99289
-30.435375 69.51265 343.64819
-33.671406 68.318169 355.93533
-34.064739 68.26059 356.48291
-34.737083 68.17308 357.04318
-28.165413 69.853836 326.27673
-28.504082 69.801765 326.86267
-26.824303 70.231804 331.04959
-27.905769 69.855392 331.6557
-28.535929 69.771271 332.27304
-30.30674 69.186623 337.76422
-30.415394 69.008934 343.64597
-32.526295 68.197548 355.41782
-34.047718 67.757454 356.48047
-34.721069 67.670792 357.04062
-27.601284 69.382896 331.61783
-30.284803 68.684845 337.76221
-30.112585 68.535141 343.61816
-32.226292 67.721985 355.39981
-33.638401 67.311043 355.93027
-27.928913 68.826431 332.19867
-28.095503 68.717438 335.44522
-30.26609 68.077095 337.19061
-30.988064 67.864571 337.76752
-31.070276 67.840324 338.30905
-31.153616 67.816025 338.85028
-29.529116 68.090012 343.5647
-31.926291 67.24556 355.38174
-33.621437 66.807396 355.92783
-27.169947 68.569069 326.17365
-27.743595 68.237915 327.26105
-28.194893 68.41452 327.93381
-27.977161 68.299965 332.74356
-28.500706 67.987701 333.27338
-28.57596 67.964294 333.81921
-28.65115 67.940796 334.36493
-28.557371 68.17733 334.96277
-30.328548 67.44558 337.1618
-30.687483 67.39257 337.73499
-31.048401 67.339401 338.30707
-31.131651 67.315025 338.84827
-31.215906 67.290504 339.38934
-29.417826 67.60994 343.01917
-29.50901 67.584679 343.56253
-31.625187 66.768227 355.36362
-33.88541 66.275246 355.94043
-27.641493 67.719566 336.47049
-30.665487 66.891243 337.73291
-29.974417 67.09333 341.46869
-29.396807 67.10463 343.01712
-29.487991 67.079247 343.56039
-32.514744 66.08828 355.38635
-33.86845 65.771912 355.93802
-28.247639 67.177338 327.33578
-27.160315 67.481812 328.871
-27.619402 67.213875 336.46848
-30.005026 66.470329 337.12656
-30.365881 66.417847 337.70029
-30.894337 66.31617 339.35617
-29.376762 66.599045 343.01505
-29.466938 66.573822 343.55835
-33.178104 65.351044 355.37143
-27.602564 66.754768 326.70786
-27.944223 66.704269 327.29453
-27.220791 66.849419 328.84439
-27.457586 66.543617 334.22388
-27.60759 66.674194 334.82886
-27.517178 66.732162 335.91943
-29.785528 65.971344 337.63675
-30.426189 65.891388 338.24066
-30.510386 65.866661 338.78302
-30.873348 65.814354 339.35416
-30.213125 66.05735 341.49231
-29.355587 66.093544 343.01309
-29.446833 66.068146 343.5563
-31.746656 65.24778 354.83578
-27.640743 66.230232 327.25311
-27.280228 66.217308 328.81772
-27.086996 66.234253 336.94864
-30.125547 65.416473 338.2085
-30.488419 65.364471 338.78104
-30.572676 65.339615 339.32306
-30.192076 65.553558 341.49033
-29.334566 65.587929 343.01102
-32.012585 64.714211 354.84967
-32.580933 64.395668 355.33524
-32.919891 64.312035 356.93823
-27.681002 65.705223 327.79852
-26.495564 65.782913 336.88318
-26.576674 65.758453 337.43192
-29.544127 64.967659 338.14569
-30.466482 64.862259 338.77911
-29.69128 64.869217 340.83313
-30.255573 64.919907 341.46005
-29.313515 65.082199 343.00909
-29.405615 65.056572 343.5524
-30.858389 64.315056 354.7822
-32.902805 63.806496 356.93588
-27.376425 65.229675 327.75748
-27.722204 65.179657 328.34369
-24.579441 65.702614 336.74454
-26.838236 65.223198 337.46136
-29.242353 64.490601 338.11319
-29.886036 64.412682 338.71738
-29.971209 64.387596 339.26025
-29.670229 64.364906 340.83118
-29.758484 64.339554 341.37415
-31.694366 63.728081 354.82886
-32.88673 63.300907 356.93347
-26.511786 64.806435 327.6376
-27.417566 64.703529 328.30316
-28.042902 64.62735 328.92697
-25.201933 64.966446 337.31155
-29.303425 63.961468 338.65521
-29.669376 63.910221 339.22876
-29.649208 63.860462 340.82916
-30.997889 63.300816 354.25638
-31.220449 63.245415 355.3313
-31.770111 63.095226 355.86633
-32.190186 62.874355 356.36716
-32.870655 62.795235 356.93112
-27.294554 64.149712 328.26938
-27.823881 64.023338 328.86197
-27.977518 63.872097 329.3833
-27.876625 64.103966 329.98068
-25.775574 64.336899 336.26385
-26.018942 64.262741 337.91278
-29.085878 63.457752 339.16736
-29.452778 63.406788 339.74081
-29.627182 63.355888 340.82736
-28.776716 63.590546 343.49454
-30.980835 62.793175 354.25415
-31.775743 62.421089 355.81393
-27.922771 63.577065 330.52573
-25.752386 63.827938 336.26205
-26.40394 63.750927 336.87592
-26.079702 63.728626 338.46024
-28.955334 62.927349 340.22449
-30.677595 62.310535 354.23499
-31.073917 62.257645 354.78952
-31.186096 62.229809 355.32675
-32.041733 61.889244 355.82718
-26.78141 63.244312 328.22025
-27.897783 63.073666 330.52402
-25.769783 63.245041 338.4277
-26.140587 63.194145 339.00751
-26.311783 63.14357 340.10504
-28.733027 62.523251 345.09702
-30.374353 61.827 354.21579
-31.144281 61.618511 354.75369
-31.474775 61.530567 355.29028
-32.025627 61.382465 355.82495
-27.189587 62.563965 328.78006
-27.622843 62.388134 329.34012
-27.749773 62.443348 331.00626
-25.500328 62.810341 336.77609
-26.034302 62.709774 338.45682
-25.715923 62.684547 340.04462
-28.523844 61.913704 341.25229
-28.22756 61.884918 342.83136
-29.54734 61.734512 344.02454
-29.641485 61.708168 344.56693
-29.736757 61.681793 345.1091
-30.357147 61.318272 354.21356
-31.327009 60.951637 355.25476
-32.008511 60.875721 355.82263
-32.689068 60.799881 356.38803
-27.318205 61.908798 329.30026
-27.459465 61.860538 330.39474
-27.810341 61.811985 330.97864
-25.271399 62.300591 337.29272
-26.015528 62.095772 337.87714
-26.067598 62.123379 340.62112
-28.206387 61.377205 342.82947
-29.43306 61.254532 343.48007
-29.526289 61.228287 344.02271
-29.716591 61.175526 345.10727
-30.338995 60.809353 354.2114
-30.451267 60.781498 354.74991
-31.87714 60.39695 355.28479
-32.557693 60.321995 355.85162
-27.434477 61.356232 330.39313
-27.506588 61.331791 330.94022
-25.249157 61.7901 337.29114
-25.758532 61.637421 340.59042
-29.411978 60.748272 343.47827
-29.506121 60.721943 344.0209
-29.696516 60.669067 345.10547
-30.40942 60.169624 354.17542
-30.99262 60.041416 354.72192
-32.143188 59.867008 355.29877
-27.058552 60.899673 329.8064
-27.409458 60.851818 330.39142
-27.481447 60.827381 330.93857
-27.554592 60.802818 331.48557
-24.732424 61.30275 337.77679
-25.562195 61.177818 339.48972
-25.448366 61.150593 340.5596
-29.014839 60.291466 342.9068
-29.620213 59.865456 353.633
-31.445427 59.433762 354.72781
-32.126011 59.360477 355.29654
-26.752815 60.417938 329.76694
-26.823978 60.393421 330.31506
-27.248886 60.321178 331.4473
-24.504286 60.789524 338.29501
-25.166004 60.716309 338.90778
-25.050283 60.688641 339.97842
-28.993666 59.784733 342.90509
-29.370758 59.7355 343.47485
-29.888123 59.332924 353.64862
-31.712484 58.904072 354.74246
-32.478691 58.70195 355.27667
-25.142197 60.281406 329.62723
-26.798868 59.88802 330.31348
-26.87101 59.863373 330.86151
-27.224752 59.815937 331.44595
-27.847378 59.424133 341.18674
-28.689604 59.300179 342.87656
-29.436241 59.100464 343.44275
-29.068256 59.193851 345.05017
-29.958487 58.692886 353.61267
-31.013807 58.468685 354.16962
-32.549271 58.066139 355.24039
-25.400703 59.750931 329.66403
-26.210306 59.427147 330.23651
-27.199764 59.310635 331.44434
-24.33993 59.736477 339.36407
-24.715801 59.687592 339.94531
-25.381607 59.615814 340.55472
-27.826204 58.916111 341.18506
-29.145193 58.659328 345.59125
-30.996601 57.960625 354.16754
-31.678286 57.889572 354.73828
-32.532185 57.560089 355.23822
-25.902462 58.942577 330.1972
-26.404423 58.845673 331.88135
-24.113684 59.220089 339.88394
-25.25618 59.013992 340.51157
-28.079435 58.328457 342.81909
-30.979485 57.452396 354.16562
-31.965103 57.195995 354.70181
-23.800497 58.728767 339.85226
-28.05814 57.819908 342.81744
-28.4363 57.77203 343.38873
-28.516809 57.482666 344.38821
-28.875181 57.59903 345.00751
-29.191515 57.515114 345.55655
-29.992516 57.034328 353.57236
-31.817337 56.616474 354.6658
-25.199083 58.097458 330.1452
-25.924227 57.903305 330.74356
-25.788582 57.873909 331.80527
-22.430458 58.562145 339.79028
-24.446899 58.144848 340.46204
-27.281895 57.406391 341.66919
-30.261557 56.504452 353.58832
-30.658915 56.456001 354.14413
-25.332521 57.437416 330.66702
-25.973211 57.370567 331.2915
-22.408031 58.045757 339.78873
-24.424595 57.631454 340.46048
-25.08279 57.416519 341.02136
-26.77984 56.91132 342.15793
-26.871878 56.88446 342.70471
-27.537962 56.816708 343.30521
-28.808069 56.362419 353.04205
-30.640734 55.947201 354.14215
-25.665182 56.883301 331.25299
-23.236563 57.201595 340.34012
-24.958399 56.812954 340.97794
-25.338421 56.765785 341.55667
-27.136614 56.353966 342.7305
-28.547035 55.991699 343.32211
-28.560932 56.030762 345.50174
-28.656094 55.777851 353.00482
-29.652725 55.524689 353.54825
-24.786621 56.435074 331.13962
-25.297491 56.338097 332.82794
-22.629255 56.727348 340.27869
-23.596046 56.639023 340.92102
-25.316086 56.253201 341.55505
-26.736271 55.890293 342.15482
-26.829346 55.863407 342.70148
-28.52586 55.483574 343.32056
-28.530226 55.421169 344.92508
-28.947882 55.080894 352.96924
-30.206915 54.976402 353.58246
-30.605404 54.929134 354.13824
-25.4051 55.860836 331.76312
-22.606798 56.210953 340.27725
-23.280663 56.144054 340.88992
-24.524954 55.854229 341.4971
-26.520063 55.372025 342.6723
-28.504747 54.975353 343.319
-28.794168 54.893543 344.94904
-30.077587 54.495125 353.0419
-30.847883 54.301483 353.58209
-30.961191 54.273117 354.11929
-31.358644 54.226501 354.67313
-19.79167 56.501091 330.17712
-25.380903 55.351982 331.7619
-26.024586 55.288094 332.38431
-22.584341 55.694462 340.27582
-22.966316 55.648052 340.85913
-26.498768 54.860695 342.67087
-28.483513 54.466915 343.3175
-28.772902 54.385002 344.94745
-30.117104 53.900208 353.01709
-30.917454 53.664791 353.54572
-31.030672 53.636322 354.0827
-31.428185 53.590103 354.63651
-20.059086 55.964108 330.21478
-25.070772 54.861668 331.72385
-26.283369 54.761314 332.41937
-22.649799 55.151131 340.82809
-25.052097 54.706783 342.07162
-28.178261 53.976398 343.28903
-28.370516 53.921715 344.37689
-28.46768 53.894356 344.92035
-29.643616 53.521965 352.48022
-30.899269 53.156384 353.54379
-31.01252 53.127914 354.08078
-31.126776 53.099308 354.61743
-19.668911 55.49229 329.61572
-20.032602 55.447334 330.21359
-20.398214 55.402225 330.81042
-24.760759 54.370472 331.68546
-26.336195 54.227371 332.96661
-23.168789 54.496536 341.39819
-25.320799 54.17485 342.09866
-27.871939 53.485107 343.26053
-28.253214 53.440033 343.83157
-28.447453 53.385212 344.91882
-29.779016 52.920731 352.46182
-30.32999 52.784218 353.00278
-30.881086 52.647758 353.5419
-31.109631 52.590668 354.61551
-19.733076 54.84745 329.58646
-20.096737 54.802776 330.1842
-20.461405 54.758205 330.78104
-24.735495 53.860455 331.68439
-25.556574 53.547615 332.25143
-26.114731 53.61153 332.90115
-25.996498 53.477356 333.38556
-22.583101 53.851318 341.28625
-23.261087 53.787815 341.89746
-27.850824 52.975582 343.259
-28.232038 52.930893 343.83023
-28.426216 52.875862 344.91736
-29.209768 52.546726 351.9173
-30.466368 52.184158 352.98401
-30.863941 52.139103 353.54007
-31.091385 52.082054 354.61359
-19.796146 54.202824 329.5571
-20.160873 54.158531 330.15494
-20.525541 54.114262 330.75159
-20.599388 54.088299 331.30917
-25.609371 53.012135 332.79959
-25.972271 52.96851 333.38446
-24.976904 53.047192 342.5748
-27.543467 52.482708 343.23047
-28.210804 52.421661 343.82877
-28.119894 52.383255 344.8902
-29.190516 52.036037 351.91553
-30.448153 51.675034 352.98224
-30.788845 51.589279 354.59439
-19.841553 53.65974 330.11475
-20.499086 53.597893 330.75055
-20.572903 53.57172 331.30804
-24.189106 52.847763 332.15936
-25.94713 52.459686 333.38333
-26.027143 52.433098 333.93192
-23.216171 52.755123 341.89459
-24.946924 52.386852 342.52396
-27.522169 51.9725 343.22906
-27.618265 51.944935 343.77396
-27.71537 51.917362 344.31857
-27.813511 51.889656 344.86295
-29.357376 51.416828 351.89401
-30.032455 51.210087 352.4231
-30.144699 51.181522 352.96164
-19.815067 53.142361 330.11368
-20.839312 53.037582 331.34488
-24.164909 52.336426 332.15833
-24.990017 52.026165 332.72464
-25.353985 51.983173 333.31067
-25.717985 51.94022 333.89551
-22.900726 52.255447 341.86435
-23.579809 52.194336 342.47388
-26.92771 51.49424 343.17291
-27.597031 51.434612 343.77255
-27.695202 51.406975 344.31726
-29.903099 50.728809 351.88251
-30.014303 50.700367 352.42142
-30.126514 50.671803 352.95987
-30.238726 50.643257 353.49802
-30.35289 50.614544 354.03592
-19.861359 52.59864 330.67123
-19.935268 52.572289 331.22974
-20.595882 52.511848 331.86337
-25.043791 51.489159 333.27365
-25.408796 51.446453 333.85907
-25.774811 51.403748 334.44324
-23.265341 51.694424 342.44418
-24.997192 51.331066 343.0704
-27.003517 50.955315 343.71747
-27.10059 50.927525 344.26297
-29.025616 50.531612 351.37009
-29.93512 50.148239 353.47781
-18.33066 52.454647 329.45099
-19.908752 52.054508 331.22861
-19.983604 52.027992 331.78708
-25.547556 50.882385 334.95639
-22.85578 51.221256 341.86176
-23.242821 51.177738 342.44281
-25.26498 50.801357 343.09668
-26.981243 50.44392 343.71609
-27.079262 50.416088 344.2616
-28.719017 50.03532 351.34824
-29.292925 49.738205 351.83929
-29.404158 49.709663 352.379
-29.517317 49.680965 352.91852
-29.630564 49.652256 353.45761
-18.781153 51.664764 329.43246
-19.05718 51.748837 330.06082
-19.12999 51.722366 330.62054
-19.958126 51.509991 331.7861
-20.033957 51.483356 332.34424
-24.502251 50.471096 333.75024
-24.86927 50.429012 334.33612
-25.237301 50.386932 334.92093
-22.926306 50.676384 342.41299
-24.953468 50.302433 343.06787
-25.94088 50.065929 343.64594
-28.123089 49.552586 351.30588
-28.699987 49.25568 351.79752
-29.098507 49.212936 352.35776
-29.612228 49.141445 353.45581
-18.754604 51.145687 329.43158
-19.121288 51.103298 330.03116
-19.194126 51.07674 330.59064
-19.342733 51.02343 331.70926
-19.713507 50.980869 332.30591
-23.436615 50.254139 333.70142
-24.639914 49.905106 334.8504
-22.316494 50.18903 342.35464
-23.674747 49.974247 342.98764
-26.461308 49.421448 344.20572
-27.815422 49.054039 351.28375
-29.479851 48.659153 352.91504
-19.113621 50.484978 329.44156
-19.185423 50.45826 330.00107
-19.553204 50.416264 330.59933
-19.317194 50.504211 331.70844
-19.687965 50.462044 332.30502
-20.059746 50.419975 332.90051
-23.988232 49.711662 333.77188
-22.293976 49.670643 342.35349
-25.862543 48.936623 344.15082
-28.064096 48.429409 350.7258
-28.551287 48.260735 351.25327
-28.662458 48.232075 351.79419
-29.061987 48.189991 352.35443
-19.250536 49.813396 329.97095
-19.323376 49.78643 330.53006
-19.366476 49.958103 332.26663
-23.386909 49.227085 333.69952
-24.221327 48.922287 334.2626
-24.758259 48.826332 335.94879
-25.453959 48.464722 343.57474
-28.930553 47.707203 351.81262
-29.90395 47.640087 352.41141
-19.29689 49.267654 330.52921
-19.340967 49.438694 332.26578
-19.418781 49.411583 332.82486
-23.908934 48.423222 334.22614
-24.446903 48.327301 335.91397
-25.431564 47.950726 343.57346
-22.242523 48.563133 343.98288
-28.801136 47.224331 351.27063
-29.486118 47.170807 351.85114
-19.270281 48.748791 330.52832
-19.345104 48.721569 331.08731
-19.420933 48.694328 331.64621
-19.49774 48.667057 332.20493
-19.470964 48.864674 333.38278
-24.254625 47.869602 334.81171
-24.338634 47.84203 335.36249
-24.507511 47.786884 336.46344
-27.319283 46.944519 350.13559
-28.384279 46.753269 350.70721
-19.394386 48.175156 331.64532
-19.548977 48.120396 332.76273
-23.283079 47.422123 334.15326
-23.9422 47.369328 334.77585
-24.314285 47.329197 335.3616
-24.48423 47.2738 336.46252
-25.098602 46.934574 343.54355
-28.364996 46.241074 350.70575
-29.051048 46.18922 351.28821
-23.340633 46.880241 334.70468
-24.000854 46.828236 335.32614
-24.459852 46.760666 336.46173
-28.920561 45.706478 350.74649
-18.906731 47.106125 332.68628
-19.14016 47.210293 333.87015
-23.026163 46.377617 334.66858
-23.688341 46.326344 335.29071
-24.061371 46.28688 335.87646
-22.731483 46.265415 342.86145
-24.001526 46.190281 343.52502
-26.951466 45.317276 349.53036
-18.66287 46.569862 333.20758
-19.039778 46.530003 333.80411
-22.794575 45.846149 335.1853
-23.875853 45.57999 343.48047
-26.932182 44.803093 349.52896
-28.484423 44.722435 350.18152
-19.014114 46.009106 333.80322
-22.853991 45.302608 335.7373
-23.520319 45.252819 336.35791
-24.186583 45.203186 336.9762
-22.198246 45.30798 342.83334
-24.52841 44.867245 344.03271
-24.628382 44.838688 344.58163
-28.067503 44.249004 349.61688
-28.266495 44.095463 350.12317
-19.152136 45.432129 334.9205
-23.495909 44.737995 336.35721
-23.962767 44.575706 336.91055
-24.62821 44.527126 337.5271
-24.628374 44.622486 338.10849
-22.36871 44.720486 342.82974
-24.506989 44.351109 344.03174
-27.181877 43.764935 349.54858
-18.829365 44.921467 334.88394
-19.210331 44.882607 335.47858
-24.027147 43.93782 336.87799
-24.404364 43.899757 337.46158
-22.051826 44.211323 342.80014
-23.417805 44.017742 343.43155
-24.192183 43.84457 344.00327
-24.685543 43.777592 345.12802
-27.161528 43.250977 349.5473
-17.101803 44.804298 332.55591
-18.506622 44.409801 334.84753
-19.184668 44.361202 335.47784
-23.157913 43.717262 336.32193
-24.381021 43.385792 337.46085
-22.029245 43.691628 342.79916
-24.170732 43.327824 344.00217
-24.371651 43.27042 345.10043
-27.142122 42.736885 349.54605
-27.587606 42.620991 351.71634
-17.559713 44.020275 332.53107
-18.224701 44.068886 333.75851
-18.48093 43.887405 334.84692
-18.564724 43.859097 335.40649
-23.446587 43.031368 336.30157
-23.979397 42.908985 336.87659
-24.35652 42.871647 337.46005
-24.248274 42.823376 338.52731
-24.628479 42.786068 339.1088
-24.920898 42.872089 339.72171
-21.809282 43.152271 343.32297
-23.956902 42.791016 344.52344
-24.05785 42.762241 345.07288
-26.875071 42.15213 351.13071
-27.56814 42.106701 351.715
-18.129305 43.478146 332.60626
-18.209072 43.449867 333.1665
-18.290791 43.421623 333.72662
-18.455267 43.364899 334.84628
-18.837271 43.32711 335.44128
-23.665781 42.402721 336.84219
-24.043911 42.365829 337.42627
-24.223833 42.308632 338.52655
-24.605015 42.27169 339.10815
-24.987356 42.234734 339.68845
-23.148766 42.348026 343.36661
-23.247639 42.31918 343.91745
-23.935421 42.273598 344.52252
-24.139332 42.215862 345.621
-26.812883 41.716125 349.52106
-26.743578 41.66597 350.58606
-27.146156 41.629124 351.15051
-27.549803 41.592266 351.71362
-18.195423 42.831581 332.57443
-18.64115 42.832687 333.19482
-18.951283 42.757008 333.76813
-18.727875 42.833294 334.88162
-24.020508 41.850945 337.42572
-24.110498 41.822304 337.97595
-24.200399 41.793758 338.52591
-24.581644 41.75721 339.10736
-23.126278 41.82962 343.36563
-23.226278 41.800751 343.9165
-23.620584 41.763958 344.49429
-23.824402 41.706108 345.59375
-26.321564 41.187035 350.01889
-26.72414 41.150574 350.58478
-27.127758 41.114197 351.14929
-27.909895 40.94659 351.69644
-18.935623 42.139965 333.17715
-19.017342 42.111439 333.73593
-18.573484 42.262405 335.9642
-23.037357 41.38752 336.77335
-23.416527 41.351177 337.35858
-24.086088 41.307457 337.97525
-24.177027 41.278667 338.52524
-24.26897 41.249992 339.0751
-24.455883 41.192379 340.17398
-23.203638 41.282238 343.91556
-23.802891 41.187889 345.59274
-26.08198 40.729427 348.92862
-26.192053 40.700336 349.4733
-26.302128 40.671223 350.01773
-26.704704 40.635166 350.5835
-27.866249 40.338055 351.11752
-18.61282 41.626446 333.13928
-18.9918 41.589916 333.73544
-19.074497 41.561264 334.29398
-23.101841 40.84243 337.32452
-23.772383 40.799484 337.94183
-24.153624 40.763611 338.52469
-24.245537 40.734791 339.07443
-24.338552 40.705963 339.62387
-24.43251 40.677216 340.17331
-22.493364 40.806881 343.30716
-22.88776 40.77076 343.88681
-26.171671 40.184467 349.4722
-26.282753 40.155346 350.01648
-26.68536 40.11969 350.58228
-27.846935 39.824268 351.11621
-18.965101 41.068329 333.73495
-19.048925 41.039654 334.29358
-19.132721 41.010868 334.85193
-19.033926 41.229729 335.4747
-23.167332 40.297199 337.87543
-24.02475 40.197269 339.59189
-24.410084 40.161797 340.17264
-22.470875 40.287373 343.30627
-22.865211 40.251656 343.88596
-23.274893 40.135357 346.08835
-25.458099 39.709843 348.87973
-25.568111 39.680737 349.42535
-26.263315 39.639355 350.01532
-26.822746 39.519783 350.56406
-18.93956 40.546627 333.73456
