ply
format ascii 1.0
comment PCL generated
element vertex 1544
property float x
property float y
property float z
element camera 0
property float view_px
property float view_py
property float view_pz
property float x_axisx
property float x_axisy
property float x_axisz
property float y_axisx
property float y_axisy
property float y_axisz
property float z_axisx
property float z_axisy
property float z_axisz
property float focal
property float scalex
property float scaley
property float centerx
property float centery
property int viewportx
property int viewporty
property float k1
property float k2
end_header
-14.188623 78.96553 348.99271
-13.587151 78.962639 349.0657
-25.188921 79.344254 345.39163
-18.667179 79.559242 344.62524
-14.808105 78.464882 348.53513
-22.303698 79.000664 344.22711
-25.244167 78.334572 344.6076
-17.824883 77.416191 347.76285
-17.221552 77.414238 347.82785
-16.582596 77.361069 348.23688
-14.878554 77.506317 347.41583
-14.207055 77.401115 348.17487
-24.577421 77.374039 345.4993
-17.771524 76.810165 348.05826
-17.096033 76.707527 348.80637
-16.45891 76.654907 349.21448
-14.190752 76.844482 348.12921
-13.521999 76.74015 348.88834
-24.561119 76.817566 345.45062
-17.718197 76.205017 348.35382
-17.104399 76.002426 348.86118
-16.467369 75.95031 349.26926
-13.538602 76.234215 348.50058
-23.981268 76.310631 345.11102
-18.379122 75.750854 347.55896
-16.475767 75.245995 349.3241
-14.522236 74.64566 351.76389
-23.964842 75.753113 345.06335
-22.268358 75.899811 344.19232
-18.362667 75.194817 347.51343
-14.539785 74.142174 351.38336
-23.991484 75.244339 344.67056
-17.709991 74.471771 348.05515
-17.116425 74.23658 348.48468
-16.514801 74.233414 348.55264
-14.523425 73.590462 351.33899
-23.367338 74.685364 344.67578
-21.018074 74.777802 344.21158
-16.498375 73.678009 348.50812
-15.896843 73.674484 348.57706
-14.507005 73.038773 351.29456
-21.61001 74.219185 344.10471
-21.001402 74.21759 344.1637
-16.481861 73.122665 348.46252
-13.912447 72.138901 351.86038
-21.59343 73.658943 344.05682
-20.903751 73.562027 344.80914
-17.767622 73.06028 346.70825
-17.140493 72.663628 347.66446
-16.501419 72.613602 348.07465
-14.507977 71.980324 350.86853
-22.209541 72.95018 344.05432
-21.601027 72.948334 344.11227
-20.911411 72.852547 344.86362
-17.197685 72.199181 346.93307
-16.520979 72.103271 347.68768
-15.158401 71.522797 350.07434
-14.5047 71.353561 350.87384
-13.879727 71.036194 351.77274
-22.217051 72.240028 344.1098
-21.608776 72.237999 344.16763
-16.50437 71.546547 347.64203
-22.200439 71.680115 344.06088
-18.934284 71.16436 346.80096
-18.296541 71.001419 347.39163
-17.090546 70.993668 347.5264
-16.451473 70.944695 347.93765
-14.595036 70.499107 349.37949
-13.91387 70.020576 351.01114
-24.101654 69.918068 348.96643
-18.921446 70.493004 346.93661
-18.27984 70.44474 347.34488
-17.073755 70.436852 347.48071
-16.434864 70.388145 347.89206
-14.536386 69.708183 350.11526
-24.12817 69.409195 348.58167
-18.982141 70.023918 346.20309
-18.263081 69.887993 347.29922
-17.083097 69.731064 347.53647
-16.440842 69.618721 348.0961
-15.178747 69.778244 348.3316
-18.96538 69.465729 346.15637
-16.453581 68.977928 348.00363
-14.013042 68.914162 348.63757
-24.038898 68.137222 349.11395
-13.996282 68.357689 348.59293
-24.039396 67.377884 349.31058
-18.866844 67.925987 347.29626
-18.26409 67.921379 347.36313
-17.058916 67.911903 347.49985
-16.456373 67.906853 347.57071
-15.251808 67.896332 347.71439
-14.649751 67.890884 347.78824
-14.047756 67.885193 347.86307
-18.888931 67.410828 346.90704
-18.247269 67.364601 347.31644
-15.837192 67.344292 347.59583
-15.234923 67.338806 347.6687
-14.030932 67.327461 347.81735
-24.135603 66.395187 348.20618
-23.40686 66.271103 349.2728
-21.68891 66.449753 348.6019
-18.871958 66.853531 346.86029
-18.230476 66.807632 347.26974
-17.627722 66.80262 347.33859
-15.856348 66.827995 347.20654
-14.013987 66.769478 347.77258
-23.475237 65.798477 348.55225
-21.674889 65.785744 348.73398
-18.213501 66.250557 347.22305
-17.610777 66.245354 347.2919
-15.875351 66.310524 346.81711
-15.201155 66.223335 347.57721
-13.997041 66.211449 347.72684
-23.415672 65.20636 348.8414
-21.658041 65.232307 348.68649
-17.593773 65.688072 347.24515
-15.858373 65.751663 346.7713
-15.255066 65.745834 346.84409
-14.014333 65.693428 347.33835
-21.682201 64.717499 348.30139
-17.614483 65.170151 346.85577
-15.309313 65.266418 346.10892
-13.997355 65.134705 347.2926
-23.157896 64.773468 345.20258
-21.665321 64.163376 348.25385
-13.582226 64.80574 345.24698
-22.894642 63.547688 347.92456
-21.654713 63.390896 348.56668
-14.205815 64.289124 344.77753
-13.530792 64.204338 345.54977
-22.282564 62.770596 348.29926
-21.640909 62.728378 348.69888
-17.57909 63.164921 347.26443
-16.949766 63.305008 347.23264
-14.153803 63.687798 345.07922
-23.10639 63.097744 345.05615
-20.983534 62.13261 349.0531
-17.562021 62.607376 347.21765
-16.959814 62.601025 347.28845
-14.517258 62.537148 347.92642
-14.101637 63.087357 345.38104
-23.003395 62.464874 345.69287
-22.248438 61.662441 348.20319
-21.648279 61.656845 348.26608
-21.007265 61.615089 348.66776
-18.224085 62.129372 346.41547
-17.582699 62.086357 346.82806
-14.530694 61.894104 347.83578
-22.994087 61.581039 346.19125
-22.289814 61.323856 347.37427
-21.631033 61.102337 348.21848
-20.990049 61.061001 348.62021
-18.206772 61.570671 346.36765
-17.565418 61.527988 346.78128
-23.623833 61.06485 345.74094
-22.9769 61.023911 346.14255
-22.331064 60.982784 346.54526
-21.013716 60.54179 348.23483
-18.18952 61.011818 346.32086
-17.548166 60.969532 346.73456
-22.985455 60.32238 346.1965
-22.339647 60.281651 346.59924
-21.717976 60.204628 346.92285
-20.996469 59.986877 348.18726
-18.172298 60.452766 346.27402
-17.568872 60.44611 346.34375
-16.362406 60.432354 346.48816
-15.759252 60.425232 346.56192
-14.470203 59.979443 348.29175
-22.348509 59.580856 346.65421
-21.704229 59.540497 347.05698
-21.061171 59.499996 347.4617
-14.48813 59.45628 347.90396
-22.331167 59.023998 346.60556
-21.686951 58.984043 347.00833
-21.043894 58.943947 347.41302
-22.356268 58.500229 346.21582
-21.711349 58.460617 346.6196
-21.026493 58.387646 347.36542
-20.425323 58.380981 347.43118
-19.041695 57.8839 349.80066
-17.592842 58.835529 345.51413
-16.975975 58.590034 346.18414
-14.523829 58.406757 347.12619
-22.381428 57.975418 345.82507
-21.77788 57.968819 345.88879
-21.091557 57.896549 346.63663
-20.407862 57.82439 347.38351
-19.596573 56.990166 350.5574
-18.961756 56.95097 350.9613
-23.694214 57.847431 344.0722
-21.760414 57.410488 345.84
-21.115465 57.371296 346.24686
-20.462729 57.21508 346.95087
-19.579206 56.438248 350.50998
-18.905525 56.368301 351.24911
-17.010262 57.41729 345.70035
-23.659075 57.111217 344.47107
-23.01013 57.072628 344.87582
-22.405296 57.065922 344.93854
-21.742861 56.851955 345.7912
-21.139402 56.845009 345.85593
-20.467928 56.456787 347.15359
-17.596716 56.864475 345.58081
-23.667933 56.407997 344.52603
-23.019108 56.36982 344.93076
-21.767467 56.324612 345.39926
-15.606427 55.804768 348.02271
-23.650314 55.84816 344.47604
-23.001368 55.810276 344.8819
-22.396812 55.803345 344.94363
-19.527079 54.781506 350.36978
-18.853306 54.714096 351.11005
-22.983812 55.250614 344.83197
-22.379072 55.243515 344.89471
-19.509588 54.228996 350.32233
-18.874771 54.191593 350.72839
-15.571347 54.689281 347.93021
-22.966042 54.690796 344.78311
-22.275728 54.623821 345.53223
-20.249361 53.799507 348.86093
-19.571442 53.733681 349.60428
-15.553792 54.131317 347.88345
-23.002504 53.846539 344.94293
-22.322811 53.894787 345.39368
-20.829929 53.253208 348.7446
-20.231779 53.244907 348.81332
-19.553799 53.179981 349.55676
-18.917639 53.143169 349.96484
-16.194513 53.29768 347.9678
-22.3375 53.250572 345.29901
-21.691454 53.214031 345.70691
-20.885801 52.641838 348.31595
-20.214134 52.690113 348.76581
-19.576084 52.653793 349.17288
-18.939224 52.617386 349.58096
-21.720541 52.579426 345.49884
-19.598219 52.126492 348.78891
-16.196587 52.209824 347.53284
-15.530224 52.314869 347.84805
-14.916696 52.239811 348.18796
-18.982666 51.562576 348.81201
-16.216152 51.678535 347.14456
-15.542135 51.614887 347.90515
-14.942728 51.605282 347.9838
-19.004278 51.033447 348.42694
-19.682066 50.23217 348.17514
-15.579986 50.550629 347.12854
-14.97948 50.540855 347.20718
-19.66433 49.676067 348.12747
-17.28775 49.969269 347.53391
-15.599062 50.01688 346.73813
-19.646564 49.119843 348.07877
-17.941313 49.360325 347.02612
-17.269764 49.411018 347.48709
-13.219854 49.776089 345.76892
-14.998546 48.911068 346.38031
-19.033695 48.323601 347.16971
-22.704252 47.869442 346.02405
-22.045284 47.674267 346.875
-18.49445 47.80262 346.51227
-17.639158 48.636501 342.077
-17.091879 48.342491 342.36633
-13.768411 48.098221 345.54715
-12.062259 48.139099 344.75467
-22.742434 47.032993 346.18341
-22.055372 46.977993 346.92929
-21.370991 46.92305 347.6752
-18.595514 47.312416 345.43433
-12.01029 47.55064 345.05719
-22.680803 46.452496 346.47333
-22.037268 46.420563 346.88062
-21.352919 46.366512 347.62653
-18.537449 46.728596 345.73007
-16.807913 46.743374 345.26636
-22.706074 45.916271 346.08383
-18.579136 45.888912 345.89224
-16.789652 46.181133 345.2193
-16.186733 46.170666 345.29681
-22.687784 45.357723 346.034
-22.086613 45.347641 346.10156
-20.717522 45.242767 347.59973
-18.481209 45.285919 346.52893
-13.25199 45.720531 344.42557
-22.054274 44.630356 346.49664
-21.411406 44.599384 346.90598
-20.774208 44.621223 347.16833
-19.063578 44.73695 346.40646
-18.462919 44.726402 346.48004
-17.784124 44.67424 347.23926
-13.208202 45.033291 344.91449
-21.464771 43.923855 346.62054
-20.822666 43.893303 347.03094
-17.747486 43.55648 347.14362
-13.277534 43.965496 343.77441
-21.513411 42.844959 345.84119
-20.828087 42.796242 346.59348
-19.053894 42.851013 346.41809
-17.789942 42.721989 347.30408
-13.259299 43.399467 343.7272
-20.893883 42.274338 345.86182
-19.050554 42.222507 346.42224
-17.771624 42.163116 347.2562
-20.833263 41.696533 346.15488
-17.831863 41.640053 346.52542
-13.263649 42.604076 342.36346
-12.08461 42.600079 342.1803
-22.015892 41.15942 345.96399
-21.415264 41.148262 346.03448
-20.772705 41.119656 346.44595
-19.054293 41.120499 345.98248
-17.7742 41.062534 346.81952
-21.39661 40.588806 345.98459
-20.712053 40.543617 346.7381
-19.595308 40.55452 346.20209
-18.995167 40.542992 346.27658
-18.394964 40.531353 346.35309
-17.794947 40.519703 346.42963
-12.689727 41.491425 341.64685
-21.407978 39.89299 346.04099
-20.693554 39.984901 346.68933
-19.555792 39.689533 347.04489
-18.40752 39.834621 346.40948
-17.776382 39.959438 346.38165
-12.667236 40.606953 342.52277
-20.819359 39.185791 346.16785
-12.61353 40.021687 342.82748
-16.616423 38.844978 345.75647
-12.629996 39.469753 342.42886
-21.407438 38.379158 345.10275
-20.824528 38.081062 345.72797
-20.18218 38.054371 346.14249
-19.582254 38.04224 346.21698
-18.982603 38.030045 346.29245
-20.848228 37.534737 345.33682
-20.163433 37.494358 346.09366
-18.963884 37.469772 346.24454
-20.251728 36.413418 344.96805
-19.608744 36.387745 345.38577
-17.206219 36.337383 345.69647
-15.973284 36.447887 345.75302
-20.27494 35.86414 344.57471
-19.631435 35.838982 344.99246
-18.989119 35.813667 345.41214
-16.587233 35.762733 345.72885
-15.986997 35.749878 345.8103
-19.570971 35.264641 345.28769
-20.290329 34.897362 343.67856
-19.59354 34.714489 344.89435
-18.951345 34.690006 345.31512
-16.588367 34.649853 345.28735
-15.949496 34.625191 345.71518
-20.302668 34.198372 343.73575
-19.657883 34.1744 344.15552
-18.932323 34.128002 345.26608
-18.331812 34.115101 345.34351
-16.569433 34.086998 345.23929
-15.930565 34.062717 345.66714
-19.638889 33.610821 344.10635
-18.995291 33.587109 344.52817
-18.312757 33.552803 345.29449
-17.71228 33.539673 345.37381
-16.511776 33.513279 345.53662
-19.619772 33.047085 344.05618
-17.093018 32.964024 345.40622
-19.642338 32.492878 343.66156
-18.957119 32.4603 344.42999
-16.512569 32.397408 345.09497
-19.052887 31.781008 343.79617
-18.409626 31.758562 344.22003
-17.800295 31.602148 344.75244
-17.199356 31.58847 344.83282
-16.52853 31.747574 345.00296
-17.261522 29.919298 343.64835
-16.619724 29.898018 344.07742
-16.018023 29.884069 344.16074
-17.295069 29.641945 342.33713
-16.600574 29.332962 344.02917
-15.960306 29.312092 344.4592
-17.275797 29.074261 342.28778
-17.256308 28.506578 342.2384
-16.528406 28.335524 343.82413
-9.6548204 29.224291 337.73431
-17.184404 27.656748 343.45135
-11.315406 27.665672 340.21094
-11.903963 26.967253 340.5383
-11.262558 26.948177 340.98648
-17.768808 25.976654 342.87427
-11.884591 26.394655 340.49054
-11.243247 26.376078 340.93881
-17.749229 25.40988 342.82492
-17.770321 24.845675 342.42569
-17.126848 24.82823 342.85788
-12.452438 25.26384 340.30197
-17.147358 24.263184 342.45953
-12.46904 24.557405 340.36475
-11.898821 24.40904 340.5675
-11.221443 24.525436 340.90631
-17.167837 23.697086 342.06015
-16.559273 23.548962 342.60403
-12.485703 23.851435 340.42657
-11.879449 23.836346 340.51981
-11.273285 23.821354 340.61307
-12.466087 23.278736 340.37894
-11.859955 23.263712 340.47116
-16.445635 22.543898 342.74664
-12.482687 22.706644 339.97403
-11.840308 22.690819 340.4234
-17.177847 21.730127 342.1301
-16.495327 21.715204 342.91364
-17.158207 21.16181 342.07971
-16.475443 21.147823 342.86426
-17.138382 20.593443 342.03024
-16.455772 20.58045 342.81488
-11.24586 20.954323 339.65994
-17.072842 19.899063 342.78702
-11.833109 20.395329 339.51697
-11.22612 20.379831 339.61215
-17.09852 19.45619 341.93137
-11.850657 19.689117 339.58081
-17.078573 18.887421 341.8819
-11.868206 18.983271 339.64365
-16.957994 17.757351 342.4826
-13.079067 17.862526 339.00125
-17.089319 16.923103 341.95102
-13.022079 17.29211 339.30991
-17.069342 16.354336 341.90152
-13.002188 16.717688 339.26108
-17.049242 15.785367 341.85211
-13.663466 15.899598 339.34262
-17.029112 15.216299 341.80261
-17.008951 14.647293 341.75214
-13.548004 14.764669 339.95715
-17.024834 13.950748 341.8125
-13.528022 14.191447 339.90845
-17.040714 13.254559 341.87201
-13.507916 13.618023 339.85968
-13.487812 13.044503 339.81088
-17.00021 12.116393 341.77194
-16.398745 12.099473 341.86115
-13.543146 12.215031 339.98398
-16.979958 11.547228 341.72244
-16.919048 10.987925 342.02267
-14.069117 11.09537 340.14709
-16.898767 10.419058 341.97318
-14.010735 10.533256 340.45313
-16.837769 9.8611498 342.27347
-16.853897 9.1674728 342.3331
-16.951607 8.4493599 341.69296
-16.890274 7.8929095 341.99332
-16.910828 7.3104081 341.59293
-16.229429 7.3198447 342.38492
-16.890301 6.7407484 341.5434
-16.866085 6.0618682 341.95404
-16.225918 6.0588093 342.39514
-16.882793 5.3693004 342.01361
-16.242844 5.3667274 342.4549
-16.821312 4.8161068 342.31323
-16.841618 4.2312193 341.91467
-20.075127 2.3192244 352.93512
-15.850251 124.53896 348.79037
-12.676966 123.44333 350.0217
-15.515087 123.70016 349.07443
-12.417669 122.5852 350.25189
-15.458749 122.9549 349.11588
-12.422806 122.01588 350.20746
-15.184877 122.291 349.31396
-13.46627 121.6059 350.06543
-12.977252 121.62836 349.68185
-16.237858 121.87704 349.17273
-13.470644 121.03651 350.02173
-12.981594 121.05899 349.63812
-13.752006 120.55664 349.73605
-12.92584 120.3177 349.68045
-15.969273 120.64087 349.32501
-14.522017 120.05314 349.83649
-13.757018 119.9863 349.69159
-15.974254 120.06855 349.28033
-14.52709 119.48182 349.7919
-13.761298 119.41593 349.64777
-16.259394 119.58484 348.99258
-16.264404 119.01153 348.94781
-15.319605 118.68817 348.99997
-12.334665 117.69454 350.07144
-16.831293 118.61449 348.41571
-17.118113 118.12785 348.12659
-12.89314 116.72864 349.50256
-17.123791 117.55257 348.08099
-13.67348 115.08163 349.51117
-16.172592 115.22969 348.85278
-13.678432 114.51131 349.46655
-16.177542 114.65636 348.80798
-14.449905 114.0029 349.56522
-13.959297 114.02339 349.18134
-17.235119 114.22843 348.66632
-16.182396 114.08205 348.76309
-15.01065 113.59754 349.03766
-17.240736 113.65316 348.62064
-16.192873 112.93448 348.67252
-16.197731 112.36117 348.62762
-13.772927 110.69237 348.28836
-16.158941 110.48094 347.79681
-15.105801 110.34033 347.89783
-16.163734 109.90565 347.75177
-15.390566 109.84565 347.60889
-16.113113 108.53639 351.0314
-15.395329 109.27034 347.56387
-14.002919 108.88478 348.00165
-16.615309 107.95268 350.59668
-15.291951 107.74142 350.92639
-13.946918 108.14334 348.04663
-16.341516 107.3041 350.79019
-15.574699 107.24742 350.64267
-16.625578 106.8091 350.50632
-15.857477 106.75243 350.35892
-14.512934 107.15086 347.4707
-15.863009 106.18116 350.31326
-16.146547 105.68419 350.02881
-15.377534 105.6284 349.88339
-17.605202 105.65071 349.47025
-16.430819 105.18631 349.74353
-13.072026 106.04433 343.67065
-17.487677 104.74316 349.6044
-16.996395 104.76188 349.2168
-13.730273 104.22911 343.81372
-17.011911 103.04006 349.08005
-17.585907 102.03357 348.50433
-16.529945 101.90816 348.60208
-19.991594 102.36727 346.31909
-17.380144 101.54757 347.82797
-9.4601898 99.770187 348.48795
-8.6942825 99.715309 348.35727
-11.503222 101.31832 344.06424
-17.384754 100.97127 347.78268
-9.4044714 99.036728 348.53653
-11.506489 100.74093 344.02017
-18.659969 100.42912 348.27063
-11.510304 100.16409 343.97552
-18.665283 99.852478 348.22461
-17.252752 100.06149 346.18301
-16.190317 99.93795 346.28854
-8.4949799 97.388542 350.103
-7.6746311 97.173012 350.06342
-7.2396555 97.348434 349.60495
-18.670593 99.275444 348.17847
-9.2611389 96.874413 350.19156
-7.6202316 96.444946 350.11084
-7.1264644 96.457512 349.74463
-9.5355177 96.372925 349.91025
-6.8625941 95.827225 349.93805
-9.4096594 95.675697 350.00684
-8.3893347 95.365196 350.15448
-7.6273522 95.313568 350.02374
-6.8657503 95.26181 349.89481
-19.18022 97.526665 348.42886
-18.562956 97.214096 348.22543
-17.636213 97.412445 347.35623
-16.712662 97.595955 345.70804
-8.3924751 94.798897 350.11115
-7.6304774 94.747765 349.9805
-6.8689065 94.696404 349.85156
-19.061932 96.620293 348.56802
-18.568878 96.637222 348.17853
-17.579723 96.669968 347.40344
-17.222826 96.985428 345.26398
-9.8175144 94.733788 349.54047
-8.6650658 94.295624 349.83078
-7.1398349 94.193832 349.57095
-19.067181 96.043373 348.52185
-18.57416 96.060066 348.13232
-18.079826 96.076385 347.74432
-17.584911 96.092514 347.35721
-10.092773 94.228752 349.25824
-8.6689386 93.728661 349.78671
-8.174881 93.740936 349.41876
-7.4116015 93.690384 349.28967
-19.357239 95.531685 348.23297
-18.085014 95.499031 347.69809
-17.590132 95.514969 347.31091
-16.948849 95.759003 345.41849
-9.7070923 93.273598 349.63763
-8.6727943 93.161606 349.74268
-7.1460848 93.061432 349.48422
-18.090235 94.921524 347.65182
-17.595291 94.937355 347.26462
-16.954035 95.179298 345.3721
-9.1701889 92.582214 350.06744
-8.6758728 92.594406 349.69925
-7.6436648 92.483376 349.80643
-7.0915942 92.334053 349.53311
-19.158606 94.456726 347.50726
-18.095331 94.34388 347.60553
-17.600477 94.359604 347.21832
-16.958488 94.599304 345.32642
-9.1732512 92.015022 350.02399
-8.6796837 92.027145 349.65512
-19.944733 93.925934 347.60666
-19.164465 93.878052 347.46024
-18.100519 93.766129 347.5592
-17.604874 93.781654 347.17267
-16.963646 94.019272 345.27991
-9.1770458 91.447754 349.97986
-8.6826849 91.459763 349.6116
-19.949858 93.34671 347.56018
-19.169592 93.299202 347.41376
-16.684238 93.375427 345.48077
-9.4515419 90.940559 349.69824
-8.6282854 90.731804 349.66043
-8.0755587 90.582642 349.38635
-19.670029 92.70462 347.75638
-19.175388 92.720444 347.36664
-18.617025 92.572159 347.07394
-17.623716 92.60231 346.3002
-16.627441 92.631569 345.5304
-9.7260342 90.43206 349.41656
-16.651346 91.536354 347.95013
-10.717635 89.839325 350.11365
-17.43302 91.006416 348.04636
-16.52145 90.831802 348.04788
-15.879291 90.913452 347.76364
-11.214889 89.258675 350.44104
-10.320657 89.086746 350.4462
-9.6272211 89.006424 350.26486
-8.5229998 89.171593 348.81299
-7.5903215 88.891342 348.88904
-20.832855 91.21283 346.63925
-19.414839 90.881302 347.07745
-9.5725775 88.279488 350.31357
-9.0791159 88.290932 349.9447
-7.8630571 88.381157 348.60693
-20.838619 90.631447 346.59189
-19.768396 90.525032 346.69061
-17.443125 89.852867 347.95358
-11.49653 88.179085 350.11414
-10.730147 88.133682 349.97925
-20.844355 90.049889 346.54449
-19.773369 89.944435 346.64398
-17.386547 89.114082 348.00244
-16.830072 88.966118 347.71317
-15.772089 88.862114 347.81451
-11.50014 87.609848 350.06973
-10.67483 87.405472 350.02856
-9.8514137 87.201202 349.98807
-9.086462 87.155914 349.8562
-20.616316 89.31971 346.72495
-19.716204 89.200905 346.69318
-17.330793 88.375664 348.0506
-16.83511 88.389397 347.66681
-10.620309 86.677658 350.07733
-10.126512 86.688881 349.70682
-20.729353 88.560707 346.64371
-16.343212 87.825699 347.23813
-11.434194 85.899345 349.22946
-10.678415 85.661201 349.14282
-9.6387758 85.562141 349.24896
-9.1425638 85.57267 348.8815
-17.841585 86.631432 348.29535
-11.45091 85.134796 349.23129
-10.682055 85.091278 349.09833
-9.642416 84.993088 349.20453
-9.1461134 85.003532 348.83704
-17.84647 86.054489 348.24887
-16.851984 85.850014 348.32681
-15.610888 85.537354 348.6366
-9.6460266 84.423965 349.16006
-9.1496935 84.434288 348.7926
-23.62195 87.403351 343.83554
-15.895502 85.017509 348.35007
-11.185239 83.940186 349.3793
-9.6495447 83.854637 349.11551
-9.1532421 83.864845 348.74805
-24.422283 86.858147 343.93414
-16.461336 84.550858 347.8222
-11.46311 83.422897 349.09619
-9.9250374 83.338058 348.83286
-9.1568527 83.295326 348.70349
-24.42865 86.269646 343.88544
-14.670046 83.334961 349.40549
-11.467391 82.852112 349.05084
-10.697805 82.810127 348.91864
-9.9292574 82.768074 348.78757
-19.002892 83.961357 347.09204
-13.988404 82.534637 349.97784
-12.24156 82.322395 349.13943
-11.47161 82.281128 349.00546
-10.701262 82.239594 348.87396
-13.730006 81.718307 350.21597
-13.235386 81.72937 349.84164
-11.749417 81.761314 348.72214
-10.705512 81.66893 348.82861
-10.208172 81.678909 348.46011
-24.024523 84.122696 344.18759
-18.728989 82.748657 347.24039
-14.900248 81.552734 349.88333
-13.240247 81.158028 349.79547
-11.256053 81.199722 348.30643
-10.699665 81.051712 348.03305
-24.030769 83.534798 344.13882
-22.651863 83.385612 344.49023
-15.1837 81.030846 349.59848
-14.015266 80.626007 349.8876
-13.244435 80.586548 349.74997
-12.749936 80.597229 349.37576
-12.307441 80.718567 348.15338
-11.534958 80.678253 348.02124
-22.767153 82.61908 344.40942
-14.296337 80.103714 349.60446
-12.754093 80.025429 349.33023
-12.089495 80.20549 347.49576
-22.536215 81.889511 344.59259
-13.805629 79.541595 349.18289
-13.309572 79.552055 348.8085
-14.582965 79.007019 349.27444
-13.810456 78.968773 349.1366
-13.31437 78.979034 348.76215
-22.548557 80.716797 344.49524
-17.659666 79.067398 348.11844
-16.319536 78.93161 348.45746
-14.369168 78.492294 348.61371
-11.92909 79.239838 343.35455
-11.145096 79.199081 343.23203
-22.263058 80.079308 344.69458
-17.66519 78.489838 348.07108
-16.605364 78.403961 348.17026
-15.547705 78.317993 348.2717
-14.373964 77.918068 348.5672
-13.877055 77.928177 348.19189
-12.825864 77.842491 348.29724
-12.716862 78.700172 343.4335
-11.653819 78.611069 343.55634
-11.148482 78.619896 343.18668
-22.269184 79.493225 344.64584
-17.670593 77.912163 348.02359
-16.610096 77.827255 348.1236
-12.554267 77.221886 348.49042
-11.657205 78.031868 343.51099
-24.56451 78.905472 345.92551
-24.066057 78.918594 345.53015
-23.066521 78.944229 344.74252
-16.710016 76.878822 348.89069
-14.383464 76.769333 348.47424
-13.331268 76.685822 348.57852
-12.833961 76.695381 348.20566
-24.072153 78.332123 345.48132
-23.572996 78.344872 345.08667
-23.072556 78.35746 344.6936
-14.533389 76.121353 348.33362
-13.553409 76.001984 348.39056
-12.779069 75.965576 348.25677
-24.015018 77.585999 345.53192
-23.51531 77.598511 345.13815
-12.55786 75.960213 344.31549
-11.907791 76.043259 344.04181
-23.957272 76.840218 345.58331
-23.166367 76.804893 345.43552
-14.203765 74.07708 351.87274
-13.495033 74.196732 351.63745
-13.281693 74.751961 347.78326
-12.561918 75.381233 344.26941
-11.779427 75.343948 344.14435
-23.964039 76.253883 345.53378
-23.464483 76.265907 345.14014
-14.208383 73.507362 351.82642
-13.441494 73.473526 351.6861
-12.565244 74.802155 344.224
-11.782691 74.765266 344.09897
-23.470488 75.679207 345.09125
-22.387777 75.598061 345.19168
-14.213855 72.937492 351.77948
-13.446173 72.904099 351.63983
-11.786016 74.18647 344.0535
-23.47646 75.092331 345.0423
-22.39366 75.012276 345.14279
-13.943583 72.3255 351.96606
-13.45079 72.334465 351.59351
-13.016065 72.496735 351.12582
-11.789983 73.607613 344.00735
-22.918728 74.358223 344.70245
-13.456079 71.764885 351.54648
-11.793217 73.02861 343.96182
-14.286186 71.3181 350.79761
-12.803781 71.885429 347.1803
-13.362691 71.393135 346.65222
-22.080839 72.406563 344.51291
-14.020012 70.134834 350.93875
-12.641731 71.416924 343.08365
-18.177666 70.743042 347.16864
-12.645665 70.835754 343.03723
-24.004328 70.638283 348.57071
-23.055624 70.877274 348.46149
-21.801929 71.190788 344.66168
-17.617296 70.082222 347.60223
-16.099991 69.751053 348.15652
-23.722294 70.015152 348.76022
-22.937864 69.985329 348.60928
-17.562464 69.349258 347.65317
-16.15877 69.084709 348.09473
-15.380136 69.053772 347.95834
-23.439466 69.392929 348.9505
-22.656321 69.363548 348.7995
-18.692608 68.993896 347.40573
-18.193867 69.002975 347.02423
-16.163225 68.507614 348.04773
-15.384593 68.477058 347.91138
-14.885606 68.485222 347.53671
-13.710361 68.108894 347.84219
-22.374657 68.742867 348.98962
-22.320967 69.421272 344.90317
-16.449224 67.968704 347.76013
-15.329518 67.747002 347.96368
-14.830683 67.754944 347.58917
-13.993125 67.571297 347.55563
-12.939281 68.023087 345.14673
-12.435529 68.030197 344.77713
-22.381094 68.161835 348.94012
-22.200972 68.522758 345.05826
-18.433235 67.60289 347.60294
-17.5765 67.611824 347.51108
-17.017189 67.466522 347.23199
-13.997582 66.995102 347.5087
-12.943796 67.444382 345.09967
-23.828709 67.329353 349.39188
-23.334492 67.339333 349.00064
-22.551378 67.311333 348.84985
-18.587088 66.945572 347.46146
-17.52182 66.879219 347.56226
-15.959517 66.820808 347.28879
-13.723768 66.382118 347.70157
-23.34096 66.7575 348.95117
-22.845366 66.767197 348.5614
-22.213224 67.349968 344.95935
-18.592825 66.365479 347.41278
-17.810013 66.336952 347.27365
-17.027412 66.308167 347.13611
-15.963882 66.242546 347.24161
-15.344519 65.944046 347.06705
-13.728135 65.806297 347.65463
-13.33678 65.972527 345.5788
-23.348066 66.175621 348.90076
-17.815046 65.757118 347.22565
-14.232285 65.223183 347.97894
-13.732502 65.230324 347.6076
-13.341175 65.394142 345.53174
-22.858942 65.602867 348.46152
-21.091036 65.162666 349.23038
-18.103907 65.212914 346.93619
-17.037512 65.149239 347.04025
-15.973923 65.085678 347.14578
-14.236622 64.647179 347.93192
-13.736899 64.654228 347.56061
-13.344897 64.815399 345.48532
-12.84133 64.822014 345.11581
-20.811817 64.547897 349.4191
-16.981976 64.417038 347.09341
-16.481371 64.424477 346.71701
-13.349323 64.236725 345.4382
-12.845022 64.243179 345.06934
-22.954935 64.089241 349.19104
-16.927235 63.685265 347.146
-16.145185 63.658222 347.01068
-14.245935 63.494865 347.83701
-12.849385 63.664192 345.02216
-20.824484 63.388912 349.32007
-16.150221 63.079285 346.96271
-13.916913 63.146442 344.85739
-13.411788 63.152744 344.48773
-20.769468 62.657932 349.37097
-17.855339 62.66478 347.0383
-16.937275 62.526299 347.0499
-16.155226 62.500149 346.91467
-15.4321 62.546795 345.92581
-13.921275 62.566254 344.81009
-13.416119 62.57246 344.44046
-22.479202 62.352806 348.65305
-17.726097 61.97229 347.13757
-16.942219 61.946564 347.00183
-16.441092 61.953457 346.62631
-13.980929 62.057564 343.90396
-21.988672 61.778992 348.21643
-17.447737 61.35989 347.3302
-16.9471 61.366837 346.95374
-16.445974 61.373623 346.57819
-15.381935 61.316162 346.68646
-21.994896 61.196663 348.16663
-18.019989 60.843159 346.79977
-16.952715 60.786957 346.90494
-14.045033 60.963558 342.94736
-18.024807 60.262127 346.75153
-16.957657 60.206841 346.85675
-16.455799 60.213375 346.48187
-14.049301 60.380486 342.89981
-17.245415 59.657097 346.56729
-16.400875 59.48241 346.53583
-14.052867 59.797165 342.85294
-20.838398 59.25259 347.46466
-17.81757 59.136059 346.03506
-14.722213 58.640144 347.17862
-15.639486 59.262978 343.05283
-20.899061 58.579544 347.40295
-19.54221 58.498413 347.7413
-17.538662 58.524612 346.22861
-17.035948 58.530807 345.85287
-14.726364 58.062077 347.13123
-15.643692 58.678608 343.0051
-18.534702 57.076893 351.12622
-17.011461 57.873875 345.85544
-14.731187 57.484039 347.0831
-18.540108 56.501225 351.07742
-18.045513 56.507366 350.69998
-14.73595 56.905819 347.03497
-19.604286 55.972267 350.93857
-18.546307 55.925388 351.02802
-18.050949 55.931492 350.65125
-16.671898 56.913605 343.60672
-16.164698 56.919121 343.2334
-19.610394 55.395329 350.88907
-18.833969 55.375526 350.74417
-18.057026 55.355461 350.60168
-15.629678 55.441303 347.8844
-18.839375 54.798836 350.69531
-15.355021 54.837818 348.07425
-16.140116 54.280243 348.15924
-15.359753 54.260296 348.02606
-19.415518 53.694057 350.12665
-18.140198 53.680897 349.60706
-17.361088 53.661911 349.46817
-16.144817 53.702122 348.11096
-15.085035 53.658215 348.21594
-19.704702 53.139889 349.84122
-18.924986 53.121601 349.69885
-18.145512 53.103127 349.55811
-17.647528 53.108414 349.1828
-15.311216 52.957779 348.03098
-14.589005 53.085796 347.79825
-13.188062 53.204792 344.9985
-12.946012 53.423389 344.33209
-20.698677 52.737591 348.93515
-15.536142 52.256149 347.84763
-14.202467 52.615955 345.68472
-13.697918 52.620338 345.31699
-13.19215 52.624626 344.9509
-12.128394 52.581608 345.07199
-11.573084 52.771732 343.09915
-20.569595 52.050949 349.03207
-19.786982 52.033363 348.88956
-14.207135 52.035942 345.63638
-13.701945 52.040173 345.26932
-12.917002 52.02142 345.146
-12.132483 52.002438 345.02441
-11.444882 52.083416 343.20404
-20.575544 51.470242 348.98203
-19.793053 51.453159 348.83966
-18.726748 51.41357 348.93686
-18.22797 51.41861 348.5607
-17.446421 51.401299 348.42365
-15.826638 51.121964 347.51175
-15.045025 51.104313 347.38034
-14.152733 51.30835 345.69247
-12.584341 51.271908 345.44431
-11.448236 51.502201 343.15707
-20.296618 50.867611 349.16891
-19.798851 50.872757 348.78961
-19.299862 50.877781 348.4118
-16.112432 50.564503 347.22409
-15.049696 50.525795 347.33206
-14.602695 50.577084 346.11615
-13.540138 50.53801 346.23007
-12.530794 50.545757 345.50003
-19.305811 50.297279 348.36179
-18.805477 50.302013 347.98547
-15.334361 49.968204 347.04453
-13.544808 49.95919 346.18176
-12.013721 50.382298 342.57077
-19.819822 49.611595 347.93967
-18.811398 49.721199 347.93546
-18.310545 49.72588 347.56006
-17.40744 49.417229 347.63156
-14.612002 49.417252 346.01935
-11.885673 49.694271 342.6759
-19.765726 48.883671 347.99313
-19.264936 48.888119 347.6163
-14.61664 48.837139 345.97086
-14.111665 48.84087 345.60406
-18.387255 48.607346 346.6062
-14.116271 48.260563 345.55563
-13.610806 48.264236 345.18973
-11.533347 48.235672 344.58524
-18.272776 47.732738 346.76572
-16.880907 48.037178 345.43698
-15.187338 47.71426 345.39114
-14.120848 47.680157 345.50711
-13.107963 47.68705 344.77762
-11.536582 47.655975 344.53827
-22.341673 47.513592 347.19571
-20.977285 47.462063 347.53412
-15.979902 47.147457 345.46887
-15.191943 47.132656 345.34253
-14.405783 47.117935 345.21674
-13.111867 47.106297 344.72977
-11.540487 47.076202 344.49054
-22.348108 46.928555 347.14447
-20.983078 46.878578 347.48373
-18.469999 46.899578 345.59897
-15.984384 46.565262 345.4201
-15.196427 46.550957 345.29388
-14.690687 46.55444 344.92627
-13.116382 46.525482 344.68121
-11.54363 46.496304 344.44345
-22.35457 46.343307 347.09329
-20.928188 46.1497 347.53784
-18.414618 46.169655 345.6553
-17.511169 46.101582 345.63934
-16.777224 45.996662 345.49933
-15.988961 45.98296 345.37134
-14.695231 45.97253 344.87762
-18.229691 45.366245 347.41888
-17.855515 45.443722 345.33755
-16.782347 45.413815 345.4498
-15.994054 45.400513 345.32193
-14.192052 45.393551 344.46359
-13.684541 45.39666 344.09848
-18.518894 44.80077 347.12985
-16.786798 44.830727 345.40094
-15.998536 44.818016 345.27313
-14.759539 44.843575 343.92755
-13.688382 44.814316 344.05048
-12.729705 44.602417 344.15329
-12.053879 44.642941 343.91913
-21.460583 44.285286 347.01111
-20.384674 44.257938 347.11209
-18.808891 44.234035 346.84006
-16.791922 44.247681 345.35138
-16.00363 44.235374 345.22354
-20.677843 43.689102 346.82114
-16.008049 43.652485 345.17468
-20.971684 43.119221 346.52939
-18.416378 42.766441 347.18954
-17.62998 42.75536 347.05658
-16.578859 43.098507 344.64035
-13.127031 42.811176 342.90381
-20.976622 42.533886 346.47943
-18.42202 42.184246 347.13919
-17.635656 42.173771 347.00623
-20.479118 41.951912 346.05109
-18.427755 41.602055 347.0889
-17.640657 41.59193 346.95654
-16.872633 41.943409 344.29779
-20.700987 41.350323 346.61801
-19.910656 41.340778 346.48251
-19.002344 41.044582 346.55957
-17.645569 41.010082 346.90689
-16.818197 41.214531 344.35532
-13.818681 41.374115 342.05136
-12.292214 41.14159 342.65451
-19.797096 40.470013 346.64322
-18.722811 40.449089 346.74918
-17.935198 40.439892 346.61658
-14.388416 40.813148 341.50824
-19.802616 39.885838 346.59253
-18.728361 39.865913 346.69867
-18.224239 39.868542 346.32687
-16.045294 40.271217 340.8306
-14.392834 40.226368 341.45911
-20.886108 39.320457 346.43658
-19.808256 39.301556 346.54193
-19.019207 39.293331 346.4079
-18.229792 39.285152 346.27628
-17.157125 39.266064 346.38696
-16.652727 39.268539 346.01776
-15.478778 39.659607 341.27844
-14.113173 39.628281 341.65848
-20.892328 38.735023 346.38519
-19.813807 38.717072 346.49133
-19.024757 38.709358 346.35727
-18.234638 38.701633 346.22641
-17.729939 38.704006 345.8555
-20.106571 38.142178 346.19952
-19.315571 38.134876 346.06644
-18.240158 38.117958 346.17578
-17.467394 37.924763 346.10764
-16.545454 37.819744 346.13043
-16.04011 37.8218 345.76324
-15.084916 37.967857 344.92581
-20.112061 37.5569 346.14874
-17.338867 37.244213 346.20844
-16.550304 37.237411 346.08072
-16.045082 37.239468 345.71353
-14.521296 37.580326 342.09167
-13.725558 37.572906 341.97662
-20.404821 36.980095 345.85684
-19.899572 36.982273 345.48254
-18.820959 36.967361 345.59305
-17.060682 36.653126 346.39835
-16.555275 36.654984 346.03101
-16.049259 36.656887 345.66443
-14.808201 37.002579 341.7966
-13.216329 36.988888 341.56747
-19.905731 36.396141 345.43103
-19.11293 36.390308 345.30029
-17.349266 36.078293 346.10806
-16.560156 36.07235 345.98114
-16.054169 36.074142 345.61462
-15.03997 36.077629 344.88504
-14.353563 36.435314 340.52563
-19.285578 35.528996 345.22324
-17.637972 35.502178 345.81772
-16.564882 35.489716 345.93134
-16.05905 35.491421 345.56482
-15.551873 35.493114 345.19992
-15.044849 35.494797 344.83527
-14.642022 35.854454 340.22763
-17.136528 34.919968 345.39957
-15.556662 34.910183 345.15009
-15.049027 34.91172 344.78616
-14.307255 35.243015 341.28708
-19.009918 34.350754 345.36353
-17.142017 34.335991 345.34885
-16.634598 34.337486 344.98227
-15.053143 34.328548 344.737
-19.015314 33.765076 345.31262
-17.938293 33.755768 345.42523
-17.146744 33.751762 345.29886
-16.639414 33.753258 344.93231
-16.131474 33.7547 344.56665
-19.307463 33.184128 345.01978
-18.228456 33.175842 345.13324
-17.151529 33.167442 345.24881
-16.644171 33.168941 344.88229
-15.908829 33.07365 344.75015
-16.145069 32.00108 344.41724
-17.333904 31.138378 345.07193
-16.541775 31.136431 344.948
-15.883812 31.22847 344.67258
-16.831268 30.554554 344.6553
-15.755593 30.550701 344.7753
-15.76035 29.966681 344.72528
-16.675356 29.525547 343.83731
-9.810709 29.090311 338.42807
-17.598652 28.492535 342.89539
-9.8129578 28.502491 338.38101
-16.865053 27.905516 341.86908
-12.011122 27.633404 340.5657
-10.93343 27.634871 340.70847
-10.472827 27.774363 340.2471
-9.6845789 27.82172 338.49194
-11.733397 27.047752 340.76511
-10.936993 27.049345 340.66
-10.420624 27.049768 340.3085
-9.9030638 27.05028 339.95868
-16.87364 26.727158 341.76889
-16.359838 26.72781 341.4057
-11.455705 26.463091 340.96451
-10.423485 26.463991 340.26077
-9.9059858 26.46451 339.91101
-17.561546 25.858955 342.0574
-16.878269 26.137856 341.71835
-16.305923 26.000134 341.46649
-12.820349 25.870409 340.52594
-17.279062 25.272188 342.2532
-12.258959 25.288286 340.97369
-17.796667 24.682888 342.5665
-12.544844 24.698526 340.67676
-11.409041 24.568163 340.93027
-10.892702 24.56838 340.57889
-10.431274 24.706135 340.11804
-16.324469 22.657892 343.00775
-12.723663 22.657883 340.50552
-11.925249 22.663191 340.40002
-11.407658 22.6633 340.04877
-10.889641 22.663342 339.69846
-10.426746 22.800489 339.23746
-16.613279 22.064774 342.71356
-10.893202 22.076323 339.64984
-16.332846 21.483236 342.90762
-10.61536 21.495468 339.85086
-16.622387 20.888775 342.61255
-12.499443 20.887848 339.75723
-11.698586 20.894751 339.65503
-17.712442 20.285856 342.43369
-16.341892 20.308237 342.80655
-12.502088 20.299297 339.70908
-11.702057 20.306833 339.60629
-17.430605 19.704611 342.62772
-16.631372 19.712379 342.51147
-11.987326 19.710627 339.30829
-17.722004 19.107121 342.3316
-12.792044 19.113291 339.36197
-16.639532 18.53554 342.41092
-12.795421 18.523987 339.31305
-16.644009 17.947044 342.36029
-13.605101 17.334858 339.31781
-13.608384 16.744658 339.26877
-17.629194 15.891057 342.3006
-16.542437 15.913751 342.43109
-17.633549 15.301467 342.24982
-16.546791 15.325256 342.38043
-17.637903 14.711782 342.19897
-16.551237 14.736766 342.32971
-17.642256 14.121898 342.14813
-16.554829 14.148029 342.27969
-17.647282 13.532058 342.09662
-16.559214 13.559241 342.22894
-17.651573 12.942078 342.04572
-16.506586 12.83836 342.29019
-17.263206 10.925243 342.36276
-16.4627 10.940604 342.24994
-17.2675 10.335961 342.31183
-16.46629 10.351869 342.19992
-17.27173 9.746562 342.26096
-16.470615 9.7629776 342.14911
-16.989294 9.1753454 342.45502
-16.474817 9.1740437 342.09824
-17.280195 8.567461 342.15909
-16.478407 8.5849609 342.0481
-14.930795 8.5813313 340.98486
-17.227875 7.8480105 342.2207
-16.42621 7.8660631 342.10989
-17.183987 5.9500527 342.18048
-16.381866 5.9697514 342.07074
-17.188189 5.3604951 342.12955
-16.386099 5.3807592 342.01987
-17.19239 4.7708497 342.07855
-16.389597 4.7916431 341.96967
-16.79652 3.9482565 342.49942
-16.337799 4.07446 342.03192
-47.113441 124.01522 338.67874
-45.074932 121.99658 338.66641
-44.963619 122.01698 337.99927
-46.657501 121.59687 339.98331
-45.092354 121.36459 338.63461
-45.777542 120.78308 339.94269
-45.220055 120.71315 339.27032
-44.216278 120.55374 338.59732
-45.346748 120.06171 339.9064
-43.765358 119.62675 339.25922
-43.074356 119.36939 338.62283
-42.518787 119.30125 337.95709
-44.199795 118.87738 339.9285
-43.203003 118.72213 339.25522
-43.09169 118.74139 338.59109
-42.092884 118.58485 337.92325
-43.330681 118.07381 339.88794
-43.220371 118.09312 339.22339
-43.108078 118.11236 338.5593
-42.110157 117.95786 337.89154
-50.888138 119.74382 343.76712
-43.791313 117.53109 339.86041
-43.236698 117.46409 339.19153
-50.663708 118.94988 343.7518
-43.808647 116.90209 339.82861
-43.254093 116.83509 339.15967
-43.14183 116.85433 338.49554
-50.087734 118.03419 343.74115
-43.136017 116.01977 339.15988
-42.581345 115.95468 338.49313
-39.148987 115.09621 333.97479
-39.024662 115.11084 333.31952
-49.967789 117.2079 343.73932
-48.959145 117.05718 343.04633
-43.618683 115.52014 341.09067
-42.904644 115.2236 338.49655
-38.818287 114.15343 334.64505
-38.024357 113.93664 334.01538
-37.899086 113.95119 333.36197
-48.839169 116.23286 343.0451
-43.743332 114.87171 341.72433
-38.598331 113.37932 334.63678
-38.039619 113.3126 333.98398
-37.914318 113.32812 333.33063
-42.061325 113.64705 341.07214
-41.512665 113.58514 340.40439
-38.178173 112.67493 334.60651
-38.053879 112.68951 333.95261
-37.928547 112.70403 333.29929
-47.239353 114.37609 344.99521
-46.244476 114.23262 344.30383
-42.626282 113.08286 341.7099
-42.07967 113.02108 341.04025
-41.529942 112.95913 340.37262
-38.751202 112.11555 335.22903
-38.193348 112.05188 334.57516
-37.942833 112.08095 333.26794
-46.263855 113.60167 344.27158
-46.162582 113.62239 343.60107
-45.955063 113.6627 342.26093
-42.644627 112.4559 341.67801
-42.096973 112.39409 341.00836
-41.547215 112.33313 340.34076
-38.331963 111.4132 335.19797
-37.958038 111.45689 333.23654
-46.383556 112.94894 344.91016
-46.181988 112.99046 343.5687
-43.544762 111.98818 341.65955
-42.11425 111.76807 340.97656
-38.211639 110.60573 335.20099
-37.953831 110.4369 334.58151
-37.702217 110.46593 333.27527
-37.70948 110.66283 332.58746
-37.715706 110.86069 331.89978
-46.130016 111.9474 344.93915
-44.933449 111.8482 342.91251
-42.132534 111.1411 340.94461
-40.213306 110.59238 339.01202
-41.330128 110.08752 340.30948
-40.343891 109.95037 339.63934
-40.230587 109.96739 338.98019
-36.738281 109.07952 332.56641
-46.067589 110.70525 344.20425
-45.075527 110.5687 343.51645
-41.347404 109.4625 340.27768
-40.361137 109.32637 339.6077
-37.565945 108.49244 334.4884
-37.008095 108.43068 333.83743
-36.880806 108.44408 333.18607
-36.75248 108.45744 332.5351
-39.922642 108.42695 340.26254
-39.373863 108.36784 339.59961
-39.125027 108.20244 338.97495
-38.892372 108.23514 337.66171
-37.148605 107.79514 334.45795
-37.022324 107.80858 333.80612
-39.482136 107.52955 340.91623
-39.14225 107.57942 338.94333
-39.025917 107.59529 338.28641
-38.907639 107.61109 337.62997
-37.163811 107.17208 334.42654
-36.780907 107.21328 332.47244
-43.868443 108.17848 342.79877
-38.635303 106.76063 340.87247
-39.158428 106.95641 338.91156
-39.042164 106.97225 338.25473
-38.923851 106.98807 337.59836
-43.886814 107.54953 342.76663
-39.738205 106.25045 342.16992
-38.652496 106.13864 340.84067
-39.175678 106.33339 338.87994
-36.581665 105.75562 335.66788
-43.024139 106.77244 342.71829
-39.323925 105.55557 342.13062
-38.781036 105.50066 341.46594
-38.669746 105.51765 340.80902
-39.191982 105.70938 338.84799
-36.596809 105.13457 335.63641
-36.204304 104.7872 335.05518
-36.212631 104.98102 334.3696
-43.209923 105.85381 342.75882
-39.342152 104.93357 342.09885
-38.799232 104.87869 341.43411
-38.553303 104.71532 340.80994
-38.77562 105.0143 338.81244
-36.219509 104.16714 335.02386
-35.2369 104.03923 334.37518
-35.108543 104.05251 333.72675
-39.791908 104.3815 342.07437
-38.436893 103.91399 340.81116
-37.348038 103.80577 339.48993
-35.378391 103.40684 334.99271
-35.25098 103.42014 334.34378
-35.123688 103.43244 333.6954
-38.566444 103.27705 341.43591
-37.593948 103.15416 340.76718
-37.479576 103.16999 340.11252
-36.375107 102.9126 335.61176
-35.392475 102.78774 334.96127
-35.26622 102.80009 334.31244
-38.583633 102.65505 341.40414
-37.611084 102.53416 340.73544
-37.496735 102.54898 340.08084
-35.533966 102.15536 335.57925
-31.677332 101.29816 331.18051
-30.569792 100.99776 330.58627
-37.741547 101.89831 341.35867
-37.628242 101.91317 340.7037
-36.656635 101.79316 340.03848
-31.694084 100.49429 331.82733
-30.718191 100.37329 331.19458
-30.582808 100.38375 330.55524
-37.198437 101.03318 341.35324
-36.656437 100.98119 340.69312
-36.541142 100.99623 340.0401
-35.437977 100.92881 334.86688
-30.866564 99.748604 331.80341
-30.732216 99.759201 331.16357
-30.464148 99.592468 330.56149
-34.119953 100.85759 325.88614
-36.53994 100.18477 340.69461
-35.57325 100.06821 340.0311
-35.703766 100.28321 336.13434
-34.131222 100.23583 325.85507
-36.557098 99.565857 340.66306
-35.719891 99.663559 336.10278
-35.460953 99.498528 335.48877
-34.34845 99.203163 334.87567
-34.220146 99.215393 334.22876
-33.241245 99.097733 333.58545
-31.028009 98.509697 332.3815
-36.801888 98.917015 341.93793
-36.574261 98.94696 340.63129
-34.616226 98.560158 336.13956
-34.48988 98.572762 335.49164
-33.51403 98.456917 334.84451
-33.385696 98.468971 334.19913
-30.909317 97.719452 332.38715
-30.225412 97.491302 331.78741
-29.672201 97.438866 331.15292
-33.028553 98.503769 325.8924
-35.968578 98.171028 341.89105
-36.476101 98.342369 339.94684
-33.656441 97.827888 335.45905
-33.396404 97.663551 334.84912
-32.845276 97.612564 334.20453
-30.239405 96.878105 331.75656
-33.039669 97.883614 325.86142
-36.098045 97.538361 342.51172
-35.853001 97.377609 341.89267
-34.77174 97.31144 336.72476
-32.435169 96.746437 334.85382
-30.252424 96.264885 331.72556
-30.117964 96.365028 329.16837
-35.004288 96.446938 342.52957
-34.890888 96.461494 341.87906
-33.938362 96.569374 336.68924
-32.577557 96.119446 335.46649
-30.265501 95.651573 331.69458
-30.271372 95.741539 329.77505
-30.13098 95.750824 329.13742
-30.121862 95.838524 327.21945
-35.021336 95.831032 342.49786
-34.065426 95.724098 341.83212
-33.82172 95.776962 336.69324
-33.141819 95.552994 336.08102
-32.592644 95.504204 335.43515
-30.279526 95.038193 331.66351
-30.422735 95.11779 330.3822
-30.283381 95.127304 329.74408
-29.858332 95.154274 327.83282
-29.714003 95.162819 327.19681
-35.151779 95.200455 343.11716
-34.195816 95.094971 342.44965
-34.082535 95.109291 341.80051
-33.704098 94.984993 336.69748
-32.735092 94.877007 336.04819
-32.085373 94.933273 332.83072
-30.292574 94.424774 331.63245
-29.88098 94.355621 328.47754
-29.737658 94.364281 327.84125
-34.748013 94.525162 343.07639
-34.213924 94.480194 342.41791
-31.450123 94.121994 332.82693
-28.782009 93.457863 327.86432
-34.537727 93.774536 343.06393
-33.680416 93.633507 342.41156
-33.187057 93.704826 335.98669
-31.141573 93.225197 333.48727
-34.098869 92.889893 343.07077
-33.566704 92.84642 342.4133
-33.156261 92.994843 337.88971
-32.78027 93.030548 335.95386
-31.287928 92.600533 334.09717
-30.737688 92.553764 333.45734
-29.914722 92.526337 331.54248
-29.652079 92.263496 329.70288
-29.092737 92.215187 329.07245
-28.950361 92.223602 328.43735
-33.164898 92.175667 342.37323
-33.294674 92.36721 338.50433
-32.922684 92.403366 336.56717
-31.303019 91.986374 334.06586
-30.751741 91.940109 333.42615
-28.969576 91.444649 332.22995
-29.247124 91.593575 329.67722
-29.105755 91.602264 329.04156
-28.130398 91.498032 328.41986
-34.134056 91.660606 343.00739
-33.601864 91.618271 342.34998
-31.317074 91.372208 334.03464
-30.765736 91.326424 333.39487
-29.678175 91.036354 329.64099
-28.285793 90.877945 329.02264
-33.618908 91.003952 342.31824
-33.327847 91.136383 338.44101
-31.331066 90.757813 334.00327
-30.647997 90.53978 333.40121
-29.775442 90.400398 332.77719
-33.636932 90.389671 342.28656
-32.639248 90.277412 337.16397
-30.530226 89.753426 333.40762
-29.562872 89.654861 332.77179
-26.960434 89.061432 331.58945
-27.903757 89.317184 328.40619
-33.654003 89.775185 342.25473
-31.588884 89.421295 337.14972
-30.127258 89.086342 333.37747
-26.973364 88.452721 331.55865
-27.915739 88.705627 328.37555
-32.394878 88.826385 339.05374
-30.093306 88.306595 337.18195
-29.552013 88.264854 336.53946
-30.142292 88.473564 333.34634
-27.124735 87.835068 332.16068
-25.885416 87.757019 330.27234
-34.224377 88.585747 342.84848
-32.41193 88.212379 339.02213
-29.281324 87.591797 337.14453
-29.739267 87.808273 333.31616
-27.275007 87.217392 332.76318
-26.727545 87.17514 332.13214
-26.049297 86.962563 331.54135
-26.038742 87.141022 330.87204
-31.593077 87.494614 338.98062
-29.011644 86.920227 337.74884
-29.86759 87.104942 335.8396
-29.338226 87.144447 333.28598
-27.288944 86.60849 332.73209
-34.259499 87.354973 342.78464
-32.806992 86.948532 340.89517
-32.687695 86.960579 340.24936
-31.184551 86.64933 339.62241
-30.392023 86.450958 338.36911
-29.438631 86.360985 337.72092
-29.882593 86.493301 335.80817
-27.301876 85.999588 332.70111
-34.391933 86.726509 343.40201
-32.824039 86.334427 340.86353
-30.65469 85.817329 339.62076
-30.532368 85.828575 338.979
-29.993979 85.78981 338.33337
-29.45458 85.750763 337.68951
-30.31263 85.931679 335.77847
-29.766239 85.891632 335.13776
-30.332708 86.01152 333.86014
-27.315813 85.390594 332.66995
-26.098467 84.962349 332.11829
-32.424099 85.670547 340.82465
-31.885744 85.632538 340.1731
-30.548319 85.217133 338.94748
-29.9126 85.269783 335.74536
-29.781244 85.279686 335.10632
-30.346733 85.398232 333.82877
-26.111368 84.354927 332.08734
-33.325424 85.057068 343.38724
-32.977455 85.09417 341.44614
-32.441113 85.056969 340.79285
