ply
format ascii 1.0
comment PCL generated
element vertex 1543
property float x
property float y
property float z
element camera 0
property float view_px
property float view_py
property float view_pz
property float x_axisx
property float x_axisy
property float x_axisz
property float y_axisx
property float y_axisy
property float y_axisz
property float z_axisx
property float z_axisy
property float z_axisz
property float focal
property float scalex
property float scaley
property float centerx
property float centery
property int viewportx
property int viewporty
property float k1
property float k2
end_header
-16.998306 4.2994719 345.27505
-17.817062 3.5178821 345.40921
-16.719772 3.7383306 345.46518
-12.435501 132.68237 342.21887
-11.962692 131.64081 342.84656
-11.425797 131.65031 342.21436
-10.99324 131.48755 341.61697
-12.353012 131.15646 342.82373
-11.867813 131.0804 342.20743
-9.072525 130.22325 340.41132
-11.992172 130.48642 342.79221
-9.4568634 129.74089 340.38611
-11.520706 129.642 342.78433
-10.553696 129.30168 342.18945
-10.069412 129.22644 341.57703
-10.215378 129.34738 340.36282
-11.424362 128.89037 342.78094
-10.566879 128.72542 342.16223
-10.082596 128.65123 341.54984
-9.4841766 128.5914 340.33188
-10.509628 129.00983 337.90448
-11.064377 128.22437 342.74921
-10.581131 128.15022 342.1351
-10.096756 128.07602 341.52264
-9.868576 128.10603 340.30661
-10.323746 128.28462 337.89456
-9.917038 128.17949 337.29669
-11.078568 127.64816 342.72198
-10.595261 127.57502 342.10791
-10.10994 127.50079 341.49542
-10.174942 127.38663 339.117
-10.056808 127.40102 338.50937
-9.2923431 127.59867 337.24612
-10.936996 128.13657 333.00568
-10.317215 127.87885 332.43298
-9.8109283 127.79964 331.83432
-9.3026276 127.71932 331.23743
-9.9312592 126.67197 344.50269
-10.609482 126.9988 342.08069
-10.12413 126.92556 341.46826
-10.188126 126.81037 339.0899
-9.6977997 126.73588 338.48199
-11.5681 127.81199 333.55292
-10.457504 127.28844 333.01175
-10.328476 127.29954 332.40591
-9.7086334 127.0427 331.83591
-9.0887909 126.78678 331.26767
-9.4665985 125.83878 344.49268
-10.88533 126.33695 342.08194
-10.661667 126.17713 341.49713
-10.545059 126.38168 340.25394
-9.7099762 126.15961 338.45499
-10.975113 126.78727 333.58621
-10.468796 126.70916 332.98471
-9.6063995 126.28678 331.83759
-11.182388 125.76885 345.07813
-9.0038605 125.00764 344.4826
-10.675858 125.6019 341.47006
-10.074417 125.54312 340.24994
-9.5860748 125.4707 339.64063
-9.4680023 125.48409 339.03391
-9.3499298 125.49642 338.42758
-11.491684 126.28497 334.16245
-10.609085 126.11874 333.56378
-9.2423248 125.62025 331.81705
-9.9752045 124.76338 345.0535
-9.0179596 124.43541 344.45547
-9.9445648 124.85306 341.436
-10.087631 124.96789 340.22275
-9.5992279 124.89546 339.61346
-9.4811859 124.90884 339.00681
-9.2515106 124.7477 338.4267
-9.8675385 125.11971 337.18701
-11.63002 125.69245 334.74374
-11.125748 125.6155 334.13928
-10.50679 125.36284 333.56509
-10.377762 125.37296 332.95901
-10.135208 125.20642 332.38223
-9.6278534 125.12917 331.78372
-10.445206 124.24519 345.04355
-10.100845 124.39165 340.19553
-9.612442 124.31923 339.58624
-9.879715 124.54346 337.15988
-11.641373 125.11117 334.71652
-10.275528 124.61705 332.9606
-10.145493 124.62711 332.35526
-10.263199 123.5282 345.02988
-7.3627625 122.61501 344.42346
-10.115005 123.81644 340.16837
-9.6246185 123.74398 339.55905
-9.3874359 123.77068 338.3461
-10.519516 124.14957 336.52307
-10.395462 124.16184 335.91592
-10.287796 124.03777 332.93365
-8.0454559 122.25356 344.99472
-6.9618073 122.04896 344.37244
-10.128189 123.2402 340.14111
-9.5272064 122.99529 339.55786
-10.774857 123.54765 337.71149
-10.531754 123.57131 336.49588
-10.29512 123.409 335.91632
-11.409866 123.9721 333.44583
-11.052719 123.62993 332.89655
-7.8653412 121.54262 344.98117
-7.026535 121.39406 344.36307
-9.693222 122.46363 337.13229
-10.194809 122.65517 335.91684
-9.3210602 122.49822 335.31577
-8.9202118 122.64252 331.68863
-7.5140686 120.89087 344.94708
-7.0406036 120.82484 344.336
-11.176682 122.47517 337.65668
-9.8326874 121.99387 335.89178
-9.3332672 121.92098 335.2887
-8.2031097 121.71332 332.30511
-8.9295197 120.68941 345.53467
-7.5281219 120.32166 344.91995
-6.6902618 120.1751 344.30261
-9.6893158 121.07126 340.71646
-10.70845 121.45243 338.2923
-10.699997 121.63934 337.65695
-9.8438873 121.41657 335.86462
-9.0921173 121.2934 332.86969
-8.1017303 120.96239 332.3071
-8.7494354 119.97746 345.52094
-7.5422058 119.75145 344.89279
-7.4330902 119.76595 344.28799
-9.7024994 120.49603 340.6893
-10.720688 120.87515 338.26514
-9.85289 120.72261 337.65714
-10.354538 120.91011 336.44214
-9.4817657 120.75627 335.83942
-9.2333832 120.70611 333.44632
-8.616394 120.45832 332.87692
-9.2425079 119.6572 345.4772
-7.7284241 119.12203 344.88654
-7.4472046 119.19575 344.2608
-10.459366 120.0834 340.66803
-9.6137848 120.05213 338.23627
-9.119339 119.98246 337.63034
-9.2456512 120.08683 336.41919
-9.4612579 120.08829 334.0318
-8.7576447 119.87206 333.45276
-8.6265717 119.88201 332.84988
-13.262985 120.65378 346.01239
-8.7786407 118.83506 345.46655
-8.3031311 118.7701 344.85242
-10.119431 119.54546 338.81671
-9.6259613 119.47588 338.20905
-9.1325226 119.40622 337.60303
-9.2722931 119.36689 334.02539
-8.7687988 119.29579 333.42572
-7.5224915 119.06242 332.83792
-13.056015 119.73177 346.03302
-8.6846313 118.27845 344.83231
-7.8417053 118.13487 344.21277
-9.858078 118.75787 341.21506
-10.131638 118.9682 338.78943
-9.2667694 118.81972 338.1813
-9.1446991 118.83098 337.57584
-8.650238 118.76224 336.97165
-9.5251617 118.95318 334.57361
-8.1651917 118.54837 334.0094
-7.4654694 118.33614 333.43265
-12.696915 119.07294 345.99707
-8.6997223 117.70625 344.80502
-8.222168 117.64223 344.19183
-9.9872894 118.16919 341.79568
-9.8722687 118.18266 341.18777
-10.263901 118.37959 339.36966
-9.2873688 118.06063 338.78729
-9.1673431 118.07193 338.18152
-9.0452728 118.08317 337.57614
-8.5507965 118.01443 336.97205
-9.9098358 118.45596 334.54343
-7.2101898 117.46878 334.04782
-7.0801392 117.47765 333.44751
-13.56694 118.63912 346.6015
-12.712112 118.49577 345.96942
-10.889267 117.85213 345.37408
-9.4496613 117.29019 344.79196
-8.9711456 117.22617 344.17743
-10.000504 117.59396 341.76834
-9.8854523 117.60744 341.16037
-9.9047089 117.72349 339.34067
-9.0679169 117.32413 338.18185
-8.9448395 117.33534 337.57666
-8.4513397 117.26761 336.9726
-8.3166199 117.38685 334.55759
-13.582199 118.06094 346.57385
-12.98912 117.82578 345.97504
-9.942337 116.78092 345.38071
-9.3546906 116.73158 344.15668
-10.386124 117.0975 341.74521
-9.9178925 117.14727 339.31323
-7.7580566 116.59246 334.55396
-7.2325134 116.32021 333.99393
-7.1014557 116.32907 333.39359
-13.598434 117.48278 346.54614
-11.771469 116.84323 345.94684
-7.0608673 115.34879 344.74438
-11.544907 116.87212 339.90286
-10.676987 116.7278 339.28934
-9.4375763 116.50546 338.67786
-9.2049103 116.3452 338.09964
-8.9701996 116.18486 337.52228
-8.8461456 116.19501 336.91757
-7.373703 115.73703 334.56772
-7.2436523 115.74593 333.96695
-11.625412 116.15878 347.13486
-7.5495148 114.84159 345.32916
-7.0759125 114.7796 344.71716
-10.690231 116.15057 339.2619
-9.4769135 115.67528 338.10077
-7.2548218 115.17065 333.93985
-12.601273 115.89123 347.71603
-11.64064 115.58359 347.1073
-8.0387421 114.51428 345.2847
-7.0899963 114.21039 344.68991
-10.703445 115.57334 339.23444
-9.9836884 115.16463 338.68103
-9.4891205 115.09901 338.07355
-8.3777771 114.90211 335.08096
-12.132339 115.06908 347.70251
-11.655807 115.00842 347.07968
-7.9431458 113.77567 345.28241
-10.117905 114.57706 339.26096
-9.3746796 114.64043 335.62402
-8.2762909 114.15518 335.08319
-8.1472931 114.16415 334.48068
-12.147568 114.4929 347.67487
-11.671005 114.43324 347.05206
-10.451553 114.2224 346.41306
-7.9582062 113.20547 345.25507
-7.4826355 113.14547 344.64246
-9.3860931 113.85014 339.22964
-8.5240173 113.71073 338.62125
-9.5129547 114.05304 336.20169
-9.3859711 114.06315 335.59665
-12.537216 113.99229 347.65759
-10.246353 113.31139 346.435
-7.9723206 112.63528 345.22775
-7.4967041 112.57525 344.61508
-7.2758789 112.42026 344.03638
-9.1487885 113.1888 339.80615
-8.6572113 113.12525 339.19855
-8.5361633 113.13649 338.5939
-9.8986969 113.55177 336.17319
-9.3981781 113.4859 335.5694
-8.3624725 113.18434 333.80209
-12.17894 113.34158 347.61951
-11.591721 113.11349 347.02164
-9.8930206 112.66372 346.39841
-9.4164276 112.60488 345.78104
-8.3529205 112.13657 345.20813
-9.1620026 112.61356 339.77875
-8.5483398 112.56124 338.5665
-9.9109344 112.97353 336.14581
-8.5534515 112.51036 334.39624
-13.917374 113.40164 347.58334
-11.866745 112.44238 347.02911
-9.3181915 111.68314 346.41232
-8.3670197 111.56537 345.18073
-8.2569122 111.57888 344.57462
-9.2942047 112.02702 340.35739
-8.8035889 111.96554 339.74881
-8.6835632 111.97681 339.14377
-10.296707 112.47028 336.11725
-8.3220673 111.8521 334.97437
-7.4519196 111.71408 334.37784
-14.212906 112.7432 348.1958
-13.070969 112.50586 347.55978
-8.9668121 111.03952 346.3757
-8.7486725 111.0657 345.16116
-8.1603088 110.84021 344.5733
-8.1589813 111.02015 343.94147
-9.3073883 111.4528 340.32996
-8.8167572 111.39132 339.72134
-10.079605 111.54962 336.14969
-9.6070709 111.68903 335.5058
-8.3342896 111.27583 334.94714
-13.452103 111.81676 348.18286
-12.226578 111.6131 347.53622
-8.9819183 110.46735 346.34824
-9.1303253 110.56501 345.14157
-9.6911163 110.94933 340.3056
-10.091904 110.97135 336.12241
-8.8460846 110.76353 335.52115
-7.9748993 110.62761 334.92206
-12.982162 110.99761 348.16922
-11.918991 110.87658 347.51843
-10.429214 110.42879 346.90698
-9.3635712 109.96561 346.3298
-9.0343781 110.00538 344.50668
-9.7042999 110.37411 340.27802
-5.2097015 109.12446 336.76508
-9.3579559 110.24919 336.09677
-8.4857025 110.1153 335.49539
-7.6154327 109.98135 334.89716
-11.395554 109.96796 348.12231
-10.920975 109.91134 347.49997
-9.3787689 109.39342 346.30228
-9.7856598 109.5733 344.4939
-10.461685 109.94048 340.25674
-9.4847565 109.64062 339.67227
-4.9842224 108.47559 337.33597
-9.3691254 109.67191 336.0694
-8.4979401 109.53907 335.46808
-3.8978119 106.74792 354.59875
-3.4510345 106.69769 353.98163
-11.515823 109.37793 348.70685
-11.411758 109.39281 348.09457
-10.985825 109.24937 347.49286
-10.459488 109.28144 346.85156
-9.3938446 108.82126 346.27475
-9.2847748 108.83488 345.66669
-10.200851 109.17699 342.65393
-11.567459 109.83266 340.78888
-10.474899 109.36327 340.2291
-10.127457 109.03636 339.67889
-5.2906036 107.83122 337.92651
-4.160202 107.60236 337.33737
-9.0097809 109.02471 336.04303
-4.26828 106.25264 354.58868
-2.9056549 105.75025 353.98303
0.42581177 104.92226 350.95499
0.89790344 104.67954 350.38513
-11.704208 108.73842 348.70386
-10.359268 108.35961 347.48523
-10.253189 108.37336 346.87524
-9.7765961 108.31756 346.25635
-9.2989044 108.26169 345.63904
-11.07225 108.72859 343.24756
-11.728897 108.98705 340.82175
-10.86174 108.85687 340.20474
-4.9129181 106.99407 337.93747
-4.0624847 106.86755 337.33908
-4.285202 105.6915 354.56155
-2.675705 105.28744 353.91733
-2.8253632 105.20561 353.35706
0.57667542 104.08682 352.13568
0.67781067 104.09904 351.54291
0.77998352 104.11218 350.9505
0.88311768 104.12434 350.35837
-12.290298 108.36754 348.67474
-10.268356 107.80019 346.84763
-10.160294 107.81289 346.23792
-9.9411774 107.83917 345.01962
-11.086472 108.1524 343.21988
-11.24855 108.34948 340.18033
-5.0500031 106.41592 338.50848
-4.5632782 106.35715 337.90942
-4.0744934 106.29929 337.31195
-4.1136169 105.00191 354.54373
-3.2899933 104.69578 353.94559
-2.841217 104.64645 353.33002
0.6620636 103.54486 351.51617
-10.283493 107.22601 346.81992
-10.17543 107.2397 346.21027
-10.066422 107.25236 345.60092
-9.9553375 107.26496 344.99194
-11.100693 107.5752 343.19223
-11.756454 107.82962 340.76633
-11.261795 107.77126 340.15262
-5.6201477 106.04626 338.46408
-4.937027 105.85456 337.88321
-3.7536316 104.18486 354.53552
-3.3068542 104.13563 353.91849
-2.8580017 104.0873 353.30295
0.54518127 102.97748 352.08209
0.64631653 102.98967 351.48938
-10.081558 106.67818 345.57318
-9.9705353 106.6908 344.96423
-11.114883 106.99899 343.16452
-5.4378204 105.34309 338.45578
-4.9490662 105.28532 337.85602
-4.0975952 105.16276 337.25772
-5.0441132 104.13483 354.5141
-3.6743622 103.63831 353.90793
-2.8738861 103.52813 353.27582
0.52941895 102.42229 352.05527
0.63153076 102.43549 351.46255
0.73469543 102.44763 350.87009
0.83787537 102.45977 350.27792
-9.5035858 105.70545 345.59045
-9.0249176 105.65052 344.97421
-11.130112 106.42184 343.13669
-11.014084 106.43439 342.52667
-10.898056 106.4459 341.91718
-5.4499207 104.77283 338.42859
-4.9611511 104.71606 337.82877
-4.8340912 104.72389 337.23114
-4.9542389 103.41143 354.51001
-4.0438995 103.14003 353.89743
-3.2423859 103.03086 353.26462
0.61578369 101.88031 351.43567
0.71894836 101.89246 350.8432
0.92799377 101.74631 350.27545
0.92826843 101.91666 349.65924
-9.1511078 105.06579 345.55399
-8.6733398 105.01283 344.93851
-5.4619751 104.20258 338.40128
-4.9732208 104.14581 337.80161
-4.1217041 104.02526 337.20334
-4.4144745 102.6408 353.88693
-3.6109619 102.53159 353.25339
-0.091415405 101.44576 351.43701
-8.3230591 104.1992 345.5358
-5.4740601 103.63233 338.37399
-4.9853058 103.57656 337.77432
-4.431366 102.07964 353.85971
-4.333252 102.09324 353.2583
-0.10717773 100.88959 351.4101
0.34268188 100.84195 350.80292
0.79360962 100.7942 350.1972
-9.1803131 103.92043 345.4986
-5.8508606 103.12577 338.3483
-4.6074371 102.74435 337.78622
-3.2036591 102.43224 337.20764
-7.8302155 102.63953 354.47919
-4.8019867 101.57838 353.84924
-0.36657715 100.40447 350.80313
0.085327148 100.35777 350.1962
0.19143677 100.36887 349.60315
-10.041885 103.46461 346.0975
-9.1964569 103.34828 345.47101
-6.717514 102.67289 338.92529
-5.02565 102.26458 338.3475
-4.0632477 101.9815 337.7774
-3.2146759 101.86499 337.18048
-6.8704681 101.72225 353.84653
-1.2859192 100.11208 351.37454
-0.38136292 99.847282 350.77609
-8.8439026 102.71162 345.43451
-5.6363373 101.91267 338.89117
-4.2013397 101.40543 338.34671
-4.0753021 101.41325 337.75027
-3.9472656 101.421 337.15427
-6.4753723 101.01548 353.81396
-1.544632 99.453674 351.38626
-1.0927124 99.407356 350.77646
-0.29208374 99.302475 350.15518
-10.405807 102.63367 346.59741
-10.072189 102.31628 346.04196
-8.7472229 101.97491 345.43405
-5.4529877 101.21146 338.88281
-4.2133942 100.83719 338.31949
-4.0873413 100.84499 337.72308
-7.5694885 100.63131 353.83737
-5.9286499 100.24375 353.18973
-5.8305664 100.25743 352.58603
-2.0171356 99.112427 351.34879
-1.4573212 98.907089 350.76318
-0.30685425 98.745399 350.12808
-10.306442 101.7178 347.23315
-9.351944 101.61719 345.99536
-9.2398834 101.62872 345.3876
-4.7133179 100.3207 338.89148
-4.2264404 100.26846 338.29227
-4.0984039 100.27623 337.69586
-7.2267456 100.00518 353.79269
-1.5762787 98.336647 351.33203
-1.473175 98.348419 350.73605
-0.67047119 98.245323 350.11404
-10.322617 101.14366 347.20535
-9.3653412 100.8679 346.60294
-9.2542572 100.88045 345.99506
-4.3645172 99.691879 338.86182
-4.1104431 99.707573 337.66861
-7.2437592 99.438469 353.76508
-6.7868958 99.393013 353.1427
-5.8635101 99.128036 352.53098
-1.9418945 97.834969 351.31937
-1.4880219 97.789757 350.70889
-1.0340576 97.744354 350.10001
-10.337753 100.56947 347.1774
-8.9019012 100.07096 346.59241
-6.1745148 99.682404 339.38364
-4.7383728 99.183022 338.83688
-7.3578491 98.858131 354.34375
-6.6960602 98.66684 353.13974
-5.7725677 98.403053 352.52811
-1.5038452 97.230873 350.6817
-1.0498962 97.185883 350.07285
-9.5076447 99.71151 347.15546
-5.8379517 98.791718 338.81677
-5.5849152 98.807404 337.61865
-7.7345734 98.349892 354.33362
-2.5334473 96.918724 351.85196
-2.3234406 96.772217 351.27945
-1.8695221 96.727821 350.66837
-0.50408936 96.255913 350.08353
-6.3690796 98.470505 339.35071
-6.0888824 98.287766 338.19202
-5.5969849 98.236382 337.59122
-6.1018066 97.234253 354.28458
-2.5445251 96.188652 352.44748
-2.4423981 96.200523 351.8497
-2.3393097 96.212257 351.25217
-1.885376 96.16835 350.64111
-1.4294128 96.124062 350.03152
-8.327713 98.225296 347.09512
-6.1131744 97.633606 339.96191
-6.1009827 97.716125 338.16458
-7.3846283 96.964607 354.29941
-6.0206604 96.682922 353.65283
-2.5614014 95.628792 352.4202
-2.4592743 95.640572 351.82239
-2.3551636 95.652206 351.22485
-1.9002228 95.608673 350.6138
-0.98951721 95.352516 350.01691
-6.126297 97.062675 339.93445
-7.2090912 96.272888 354.28241
-5.6818085 96.062477 353.60831
-2.5772552 95.068848 352.39288
-2.4751587 95.08062 351.79507
-2.371048 95.092041 351.19754
-2.2669373 95.103355 350.60034
-1.2462921 94.690254 350.02887
-4.0930939 96.053108 339.32227
-3.3309326 95.912849 338.73193
-7.2261047 95.706459 354.25473
-6.4124451 95.608719 353.61456
-2.9449768 94.562767 352.38126
-2.4909973 94.520477 351.7677
-2.3868866 94.531883 351.17017
-2.2817993 94.542976 350.57297
-3.6353455 95.267517 339.32211
-3.1503906 95.219391 338.72409
-7.2441406 95.140152 354.22702
-6.7872162 95.098045 353.60385
-2.6100006 93.948753 352.33813
-2.5068665 93.960304 351.7403
-2.4027557 93.971535 351.14276
-2.297699 93.98262 350.54556
-2.1915741 93.993484 349.94864
-3.7733917 94.692497 339.89084
-3.6473541 94.700089 339.29486
-3.52034 94.707352 338.69919
-7.5228882 94.64109 353.6105
-5.9894562 94.43589 352.9382
-3.4355469 93.651703 352.31674
-2.874649 93.452858 351.72803
-2.4186707 93.411171 351.11536
-2.3135529 93.422066 350.51813
-2.0995483 93.275406 349.94769
-9.6118011 95.52581 347.5961
-4.5812073 94.342323 339.85049
-3.6603699 94.132462 339.26746
-9.2050323 94.610435 353.60043
-6.722168 93.978325 352.94324
-3.3454895 92.932892 352.31473
-2.8905182 92.891907 351.70056
-2.4345398 92.850624 351.08786
-9.8439789 94.929924 348.78595
-9.6269684 94.952538 347.56808
-4.5183105 93.665634 339.84341
-4.0323486 93.618958 339.2431
-8.3884888 93.773117 353.56366
-7.0980072 93.465286 352.93195
-3.6112213 92.434761 351.70346
-3.1542358 92.393822 351.08951
-2.9401855 92.247299 350.5177
-2.8341064 92.257797 349.9198
-9.7472992 94.195518 348.7858
-9.752121 94.368164 348.14877
-9.6430817 94.379303 347.54004
-9.1027679 94.599258 340.87726
-5.6020508 93.519249 340.36096
-4.5313721 93.096901 339.81598
-3.684433 92.997177 339.21255
-7.9348145 92.991959 353.54422
-7.4749146 92.951187 352.92062
-7.0139618 92.910362 352.29865
-9.5425568 93.47245 348.17703
-9.4950104 93.907684 341.49088
-8.8892822 93.698357 340.91052
-5.9780121 93.002785 340.33752
-4.9043732 92.581299 339.79227
-7.9518433 92.423828 353.5163
-7.0309753 92.343147 352.27075
-3.5389252 91.321259 351.04901
-8.9024811 93.123253 340.88263
-6.3550873 92.485046 340.31409
-5.2794037 92.06443 339.76855
-5.152359 92.071785 339.17001
-5.0253601 92.078835 338.57193
-7.9688873 91.855614 353.48834
-7.5089569 91.81575 352.86475
-3.8027039 90.819817 350.43646
-3.6956635 90.830223 349.83719
-9.7995758 92.648239 348.06445
-10.221634 92.782555 342.06201
-9.607132 92.719582 341.44693
-8.9166412 92.548073 340.85464
-6.3681946 91.913544 340.28622
-5.1654663 91.501671 339.1424
-4.3144684 91.404442 338.53934
-8.3478088 91.338921 353.47772
-7.5259705 91.247932 352.83676
-7.4239349 91.259735 352.23071
-5.6683807 90.751076 351.61661
-4.633606 90.346344 351.03796
-4.5275421 90.356949 350.43723
-9.4217682 92.017479 341.43762
-8.0820618 91.705643 340.84799
-6.2684174 91.181114 340.28986
-6.029541 91.027649 339.72107
-4.8165436 90.879883 339.11176
-8.7724915 90.732124 353.4906
-7.6820984 90.414574 352.87854
-7.440979 90.691719 352.20273
-5.0055237 89.831894 351.02521
-4.1895447 89.743011 350.39529
-3.7275238 89.703651 349.78186
-10.898514 91.91626 341.9726
-9.4359589 91.441696 341.40967
-7.6143646 90.917702 340.84637
-5.680603 90.405212 339.68954
-4.8296356 90.310181 339.08408
-8.0610657 89.8965 352.86761
-5.8044281 89.608734 352.16379
-4.6655121 89.217857 350.98254
-4.2055054 89.179176 350.36755
-4.2344055 89.091347 349.20905
-10.511612 91.08699 341.98175
-9.4501801 90.865715 341.38162
-7.2615204 90.293098 340.8136
-5.3307037 89.783745 339.65796
-4.8416901 89.740334 339.05637
-6.639389 89.130188 352.77234
-5.7124939 88.886292 352.16269
-5.4984741 88.740227 351.58682
-4.6824799 88.653442 350.95474
-4.5754089 88.663719 350.35397
-10.326279 90.384384 341.97235
-9.8333282 90.341141 341.35907
-7.6416473 89.771004 340.79068
-6.5131226 89.446487 340.22003
-5.7058258 89.263367 339.63409
-4.8547668 89.170433 339.02872
-8.0288544 88.819771 353.38925
-6.6563721 88.563385 352.74435
-5.6195068 88.164078 352.16162
-5.5154724 88.174706 351.55902
-4.9483643 88.147308 350.34045
-4.4842987 88.109138 349.72571
-8.1447754 89.239845 341.3714
-7.5409241 89.037064 340.7944
-6.571991 88.784309 340.21484
-5.3558807 88.642891 339.60257
-5.2288513 88.649849 339.00418
-7.8523102 88.130013 353.37323
-5.6365051 87.598671 352.13376
-5.1764374 87.561607 351.51569
-5.3203583 87.629677 350.3269
-4.856308 87.591942 349.71155
-11.049973 89.422073 341.90558
-10.602737 89.288788 341.31409
-5.9670563 88.177078 338.98285
-7.8703766 87.561523 353.34515
-6.938446 87.320526 352.73218
-5.6534576 87.033051 352.1059
-5.1924286 86.99646 351.48779
-5.2282867 87.073631 349.69733
-5.1192322 87.083382 349.09601
-10.739975 88.702599 341.8941
-5.2730408 87.439476 340.74011
-8.2484283 87.040298 353.33459
-6.4874878 86.550064 352.71445
-5.6694794 86.467407 352.07794
-5.2094116 86.431259 351.45987
-5.3523254 86.497795 350.27106
-11.620193 88.215317 342.48853
-10.754257 88.124611 341.86591
-5.7731781 86.909912 341.31677
-4.9250336 86.821899 340.70728
-4.7990112 86.828865 340.10934
-8.2654419 86.471001 353.30637
-8.1634521 86.482033 352.69919
-6.0434723 85.947662 352.06619
-5.4714355 85.756073 351.47519
-5.369339 85.931793 350.2431
-5.5092621 85.997215 349.05331
-11.262466 87.587204 342.45325
-5.9102936 86.331909 341.88904
-4.9511566 86.087082 341.3093
-4.8261566 86.094185 340.71115
-4.7001495 86.100952 340.11331
-7.6268311 85.746941 352.66687
-6.4184875 85.426819 352.05435
-5.60112 86.008598 348.9007
-11.276688 87.00853 342.42487
-4.7272797 85.366776 340.71506
-4.6012726 85.373436 340.11749
-8.5605621 85.388962 352.65973
-6.7935486 84.904984 352.04263
-5.6154175 84.779839 351.39136
-5.5083466 84.789696 350.78903
-6.0083771 84.899132 349.61298
-4.6861115 85.038864 348.90213
-6.5064392 85.008453 348.43375
-6.2824097 85.026566 347.22803
-11.664047 86.477615 342.40344
-6.3005371 85.236694 341.83936
-9.4983673 85.029289 352.65265
-6.3464966 84.302711 351.39441
-6.1295013 84.156853 350.81937
-6.0244141 84.331589 349.5849
-6.5224762 84.439728 348.40567
-6.2974396 84.457603 347.19995
-6.1179657 84.545029 341.83054
-5.6016235 84.311272 341.26907
-5.4766235 84.318108 340.6698
-4.9884949 84.279694 340.06653
-10.740829 84.776489 353.24362
-9.3208466 84.338173 352.63721
-8.491745 84.258972 351.99567
-5.7397003 83.733902 341.84082
-5.6157532 83.740791 341.24118
-5.4897156 83.74749 340.642
-5.3627014 83.754089 340.04321
-10.927322 84.128548 353.24564
-9.7009735 83.811028 352.62592
-8.8708649 83.732719 351.98364
-8.0417786 83.654442 351.34442
-6.9916382 83.264771 350.76483
-6.6656189 83.29287 348.95276
-6.5546112 83.301857 348.3494
-5.5028381 83.176895 340.61411
-10.550186 83.316231 353.2428
-10.084152 83.282921 352.61478
-8.88797 83.161629 351.95526
-7.835907 82.772804 351.37299
-6.9007111 82.705551 350.13229
-6.6796875 82.559212 349.55753
-6.5697174 82.568222 348.95404
-6.4586792 82.577003 348.35086
-6.0692749 82.505157 347.74976
-6.6626282 82.916061 341.74954
-6.0050201 82.643051 341.19125
-5.5169067 82.606216 340.58618
-10.467361 82.753647 352.60364
-8.51474 82.354156 351.95392
-7.4929047 82.160362 351.32889
-7.6379547 82.222023 350.13324
-6.2497101 81.860954 347.74979
-6.3813019 82.114723 341.16919
-10.849594 82.223129 352.59235
-8.3371582 81.665726 351.93915
-7.5089569 81.591034 351.3006
-7.2939453 81.60981 350.09039
-6.823822 81.576645 349.47174
-8.3239136 82.180595 341.66992
-10.867722 81.649063 352.56381
-8.3542175 81.095215 351.91077
-7.5260315 81.021637 351.27225
-7.6711426 81.081779 350.07666
-7.2467499 80.959511 349.48193
-7.2271271 80.952904 348.29211
-6.8367157 80.881882 347.68991
-7.1098785 81.382584 339.85565
-8.3713379 80.524734 351.88242
-7.0182343 80.235611 347.69022
-9.4537506 81.157188 341.63266
-7.4902191 80.8508 339.83203
-10.172897 80.418098 352.47217
-8.7505646 79.994675 351.87054
-7.9212952 79.922897 351.23126
-7.8132782 79.932045 350.6254
-7.705307 79.941078 350.01993
-7.5953217 79.949959 349.41467
-9.3529816 80.422684 341.63736
-8.124527 80.304741 341.01419
-7.8695679 80.317795 339.80835
-11.574051 80.110489 357.30106
-10.889969 79.771904 356.72089
-10.189987 79.844818 352.44351
-8.7686615 79.423393 351.84204
-8.6616364 79.432617 351.23465
-7.9218445 79.182129 350.64679
-7.609375 79.216026 350.02121
-8.2247162 79.468323 348.80838
-8.1127319 79.476875 348.20264
-7.886734 79.32991 347.62802
-8.5058899 79.770721 340.99176
-7.8967438 79.57917 340.41641
-11.368179 79.228081 357.32632
-10.909103 79.199257 356.69217
-10.447983 79.170135 356.05954
-10.178909 79.078148 352.45944
-9.1489716 78.891556 351.83023
-7.2032166 78.70182 342.8118
-9.7506256 79.31002 341.58725
-8.4051056 79.03833 340.99695
-7.7959137 78.847374 340.42188
-11.847458 78.683319 357.93335
-11.388321 78.654953 357.29764
-10.241074 78.289818 356.08664
-10.369156 78.608322 355.41983
-9.9993439 78.388397 352.44461
-9.1660614 78.319466 351.80167
-8.6968689 78.289543 351.17761
-8.5888824 78.298546 350.57059
-8.4799194 78.307396 349.96387
-8.2579498 78.324509 348.75137
-8.1449738 78.332832 348.14566
-6.854126 78.089844 342.77579
-6.7290802 78.096458 342.17429
-11.867599 78.109604 357.90457
-11.407486 78.081703 357.26883
-9.652298 77.776627 352.39859
-9.547348 77.785866 351.7897
-9.4403534 77.79493 351.18112
-9.3323822 77.803864 350.57285
-8.4960632 77.735489 349.9353
-8.4122467 77.644661 348.16104
-8.2371368 77.814377 343.93231
-7.7186432 77.587875 343.36612
-6.8682709 77.517464 342.74753
-6.7432404 77.524002 342.146
-6.2550354 77.491959 341.53851
-11.886765 77.535736 357.87573
-11.313614 77.354584 357.26794
-10.8535 77.327034 356.63388
-10.279343 77.145721 356.02939
-10.406418 77.463127 355.36227
-10.306442 77.473221 354.75156
-10.963699 77.434303 352.40823
-9.5644379 77.213058 351.76105
-9.4575043 77.222046 351.15253
-9.3495331 77.230873 350.54425
-8.3153534 76.917542 348.16351
-8.220993 77.045647 343.95038
-7.7338409 77.01432 343.3378
-6.88237 76.945015 342.71918
-6.7573853 76.951431 342.11774
-12.273087 76.999527 357.86966
-10.759628 76.600693 356.63321
-10.827866 76.668114 354.8194
-10.052811 76.668633 352.35867
-9.5826263 76.640198 351.73239
-9.4756317 76.649071 351.12384
-9.1467438 76.674835 349.30008
-4.6376038 75.779205 345.09439
-4.1583252 75.749367 344.48657
-8.2361755 76.471512 343.92197
-7.4294739 76.312393 343.32605
-6.7725525 76.378876 342.08945
-12.198288 76.435646 357.22656
-11.045975 76.074867 356.01398
-10.946976 76.08474 355.40213
-10.847 76.094566 354.79065
-11.500504 76.505829 352.93457
-10.329147 76.14119 351.73721
-9.4928131 76.075974 351.09512
-10.005264 76.167343 349.90881
-9.8943329 76.175743 349.30005
-9.2193756 76.031693 348.694
-5.1299133 75.240295 345.67554
-4.6516266 75.211143 345.06616
-4.1733398 75.181709 344.45834
-12.273483 75.752586 357.22934
-11.163101 75.491318 356.59723
-11.06514 75.501335 355.98517
-10.966171 75.511093 355.37335
-10.866196 75.520844 354.76181
-10.924484 75.585449 352.94705
-10.453323 75.557976 352.31851
-10.347366 75.566925 351.70844
-10.240372 75.575752 351.09866
-10.022446 75.592865 349.88013
-5.0328827 74.518845 345.67929
-4.9129181 74.525497 345.08008
-4.0763245 74.461357 344.46228
-3.6797791 74.39344 343.8699
-9.2423248 75.439415 343.28656
-11.643387 74.943634 357.20303
-11.182236 74.917778 356.56839
-11.084305 74.927681 355.9563
-10.985306 74.93734 355.34454
-10.942612 75.010796 352.91818
-10.471481 74.983704 352.2897
-10.365524 74.992561 351.67966
-10.257553 75.001251 351.06989
-10.661118 75.098793 349.27142
-9.8157196 75.034607 348.63412
-5.4072113 73.985207 345.66171
-4.8158722 73.804123 345.08414
-4.6948853 73.810509 344.48557
-3.5009766 73.713097 343.86041
-11.298355 74.33432 357.15179
-10.837234 74.309052 356.51791
-10.903549 74.373009 354.70413
-10.960831 74.435951 352.88934
-10.124435 74.374062 352.24356
-10.533005 74.470718 350.44727
-10.678329 74.522903 349.24258
-9.8874359 74.388672 348.02719
-5.2950287 73.527191 346.19031
-3.8723145 73.180046 343.84122
-9.2727814 74.287109 343.22955
-12.529221 74.017708 357.16141
-10.857376 73.735832 356.48898
-10.39415 73.710854 355.85657
-10.922684 73.798996 354.6752
-11.712509 73.930931 352.89673
-9.7773895 73.76532 352.19733
-10.917465 73.930519 350.43402
-10.46965 73.962791 347.99481
-5.1980133 72.806229 346.194
-4.96698 72.660713 345.62668
-4.723999 72.673187 344.42914
-3.8873291 72.612389 343.81305
-12.069168 73.255165 357.13867
-11.240768 73.196579 356.4816
-10.941879 73.224739 354.64627
-11.36348 73.32029 352.84955
-10.892288 73.294724 352.22052
-11.191971 73.397316 349.80997
-10.855118 73.421089 347.97925
-4.9820099 72.092049 345.59842
-5.0973816 72.137444 344.41058
-4.258728 72.077454 343.79373
-10.038834 73.203362 343.18967
-12.08934 72.680252 357.10965
-11.145859 72.470596 356.48172
-11.04689 72.479874 355.86987
-10.946945 72.489105 355.25827
-10.845963 72.498207 354.64697
-10.910477 72.719559 352.19159
-10.322159 72.541359 351.59476
-10.871414 72.844185 347.95035
-4.9970703 71.5233 345.5701
-5.112442 71.568016 344.38229
-4.2727356 71.509087 343.76547
-12.474777 72.138214 357.10297
-12.010605 72.114563 356.46698
-12.135422 72.235558 352.82794
-10.848892 71.888176 351.02029
-11.853043 72.31884 349.17065
-6.0901337 71.050255 345.57449
-5.127533 70.998466 344.35397
-4.6451569 70.972466 343.74619
-12.030807 71.539261 356.43784
-10.998398 71.501503 354.55914
-12.154648 71.658516 352.79886
-12.048721 71.667076 352.1861
-11.941788 71.675392 351.57367
-10.135544 71.247673 350.95847
-11.501022 71.70768 349.12695
-11.274155 71.723015 347.90567
-5.7449188 70.448196 345.5351
-5.6239319 70.454262 344.935
-5.5019226 70.460274 344.3353
-4.6602325 70.403313 343.71783
-13.152786 71.060181 356.4744
-12.041428 70.79184 355.84943
-11.620926 70.678329 355.2424
-10.847 70.699562 354.57501
-12.172867 71.081367 352.76978
-10.628006 70.696854 351.55591
-10.152725 70.67289 350.92953
-9.931839 70.688316 349.71191
-10.690933 70.806404 347.92841
-7.9159241 70.331032 346.09894
-7.4316254 70.306061 345.48407
-5.6389923 69.884102 344.90659
-5.5170441 69.890038 344.30688
-12.107376 70.125488 355.84738
-11.274857 70.071938 355.19266
-10.807602 70.049355 354.56085
-10.704697 70.057808 353.95007
-11.1194 70.144836 352.15475
-10.646164 70.12149 351.52689
-10.170914 70.098038 350.9006
-9.9490204 70.11322 349.68298
-7.9310608 69.757713 346.07025
-6.8895264 69.591042 345.4631
-6.0145111 69.344193 344.88852
-5.5311432 69.319664 344.27847
-11.030685 69.457863 355.75418
-10.929764 69.466469 355.14288
-10.826797 69.474922 354.53177
-10.723831 69.483253 353.92102
-10.618912 69.491463 353.31049
-10.663406 69.546104 351.49789
-10.188095 69.523056 350.87158
-10.078171 69.530685 350.26263
-8.4295654 69.208069 346.65793
-7.9472504 69.184189 346.04156
-6.5119324 68.797119 345.47165
-6.3899536 68.803101 344.87036
-11.415176 68.913567 355.74637
-10.948898 68.892029 355.11377
-10.845963 68.900375 354.50269
-10.74202 68.908607 353.89191
-10.63707 68.916794 353.28143
-11.415237 69.030991 351.50305
-10.206284 68.947983 350.84256
-10.095352 68.95549 350.23364
-8.4457245 68.634056 346.62915
-7.9634094 68.610672 346.01279
-11.800705 68.36808 355.73862
-10.968094 68.317513 355.08456
-10.865158 68.32576 354.47354
-10.761185 68.333878 353.86276
-10.656265 68.341965 353.25232
-11.433487 68.454239 351.47394
-10.956192 68.432076 350.84628
-10.478897 68.409973 350.22037
-11.865005 68.587822 347.8533
-8.4619141 68.059952 346.60037
-7.8644562 67.885742 346.01764
-7.3800659 67.862762 345.40295
-6.782608 67.688698 344.82373
-8.6848755 68.292503 341.17783
-11.81987 67.792351 355.70926
-11.717972 67.800674 355.09677
-10.884323 67.751022 354.44437
-10.780411 67.759033 353.83362
-10.674423 67.766998 353.22314
-11.451736 67.877373 351.44482
-10.974442 67.855728 350.81723
-10.86348 67.863083 350.20706
-10.751541 67.870384 349.59726
-8.4780884 67.485634 346.57156
-7.4030914 67.132866 346.01077
-7.2821198 67.138817 345.40796
-7.1601715 67.144646 344.80557
-8.9532623 67.648598 341.77408
-8.45784 67.624939 341.16324
-12.573807 67.27346 355.72299
-11.737198 67.224754 355.0675
-11.837357 67.329048 351.43277
-10.992661 67.279282 350.78806
-10.768784 67.293724 349.56821
-12.524429 67.494423 347.21045
-7.175293 66.571602 344.77692
-8.6009827 67.043083 341.73792
-12.592056 66.696396 355.69351
-12.123734 66.67672 355.05899
-11.653458 66.65683 354.42596
-11.184158 66.636879 353.79462
-10.711838 66.61673 353.16473
-12.115067 66.786919 350.80853
-11.63472 66.766014 350.18057
-11.154404 66.745049 349.55429
-8.6407928 66.219826 345.95477
-7.3134003 65.992882 345.35059
-7.1914215 65.998581 344.74823
-7.0675201 66.00415 344.1463
-6.5800934 65.982346 343.53555
-12.144028 66.099998 355.02966
-11.673691 66.080612 354.39664
-11.452652 65.938286 353.8161
-12.133286 66.208565 350.77927
-12.794205 66.638168 347.08429
-8.1774292 65.467407 345.94812
-7.6930237 65.446434 345.33304
-7.4461365 65.457634 344.12756
-6.2337494 65.383026 343.49774
-12.897964 65.57695 355.04199
-12.151566 65.630112 350.74994
-12.924057 65.73262 348.95999
-13.674271 66.105644 347.69455
-13.439285 65.960083 347.11508
-13.321365 65.966698 346.50198
-8.07164 64.89888 345.31537
-7.9486542 64.90451 344.71185
-7.0978546 64.857582 344.0889
-6.1347504 64.660828 343.50385
-13.389572 65.017349 355.6485
-12.445908 64.98037 354.3782
-12.341995 64.988167 353.76511
-12.649124 65.070778 351.35007
-11.801407 65.024994 350.70407
-8.9387054 64.37011 345.91418
-8.4523163 64.350128 345.29782
-7.9648743 64.329994 344.68304
-6.7514954 64.258583 344.05038
-12.84053 64.304726 355.61093
-12.086563 64.219887 354.97269
-11.500107 64.052521 354.37119
-12.361252 64.410347 353.73563
-12.667435 64.491539 351.32065
-11.334091 64.270836 350.69083
-8.4685059 63.775032 345.26898
-7.9800568 63.755371 344.65424
-7.1291199 63.71064 344.03146
-11.990616 63.49382 354.97455
-11.519302 63.476288 354.34177
-8.1191864 63.175224 345.22882
-7.9962158 63.180656 344.62537
-6.6676331 62.963249 344.02774
-13.818802 63.306046 355.58139
-12.009872 62.916992 354.94513
-11.539536 62.899986 354.31241
-12.594131 63.339806 350.64911
-8.4998627 62.624512 345.21109
-8.0114288 62.605942 344.59647
-6.207077 62.217682 344.02396
-12.984055 62.529167 355.5401
-12.030075 62.340088 354.91568
-11.558762 62.323559 354.28296
-11.087357 62.306973 353.65195
-12.982834 62.784485 350.6362
-13.013626 62.828934 348.81302
-14.907272 63.312706 345.75473
-9.2471161 62.096214 345.20471
-8.0275879 62.031033 344.56757
-7.9026794 62.036312 343.96457
-12.784256 61.809425 354.92825
-12.311874 61.793327 354.29422
-11.472092 61.754044 353.64206
-13.372635 62.228062 350.62338
-13.030991 62.247871 348.78354
-14.308975 62.399429 345.78421
-8.4083405 61.478939 344.54919
-7.5219421 61.247406 343.97629
-13.172012 61.253902 354.91983
-12.6996 61.238331 354.28516
-12.225235 61.222553 353.65207
-12.118332 61.229469 353.03973
-13.049271 61.666729 348.754
-10.127029 61.098072 346.94302
-10.123276 61.253017 346.30103
-14.701859 61.838642 345.76688
-9.6461029 60.965435 345.15796
-8.7900696 60.925758 344.53085
-13.192276 60.674904 354.89017
-12.718887 60.659809 354.25558
-12.244492 60.644539 353.6225
-12.137619 60.651352 353.01019
-13.40303 60.909817 351.21161
-14.041397 61.118053 349.98303
-13.927475 61.124596 349.36853
-13.439102 61.108185 348.73941
-10.107224 60.471237 346.92526
-9.1718292 60.371391 344.51242
-13.107651 60.102932 354.24655
-12.675064 60.129742 351.793
-13.714096 60.554729 348.11099
-9.3122406 59.751717 346.89304
-9.187088 59.794373 344.48334
-13.020035 59.530392 353.60297
-12.913132 59.537048 352.98947
-12.694382 59.550125 351.7634
-12.582474 59.55653 351.15088
-13.73143 59.972073 348.08136
-10.181503 59.211391 347.49728
-9.329483 59.175446 346.86383
-9.6948395 59.232937 345.07056
-9.5699005 59.238132 344.46487
-13.409866 58.971458 353.59323
-13.083176 58.991035 351.75192
-12.601761 58.976822 351.12125
-12.488846 58.983002 350.50906
-13.629349 59.084164 348.73502
-10.198776 58.634018 347.46796
-9.3456879 58.599041 346.83456
-10.446243 58.69593 345.06418
-10.54451 59.03508 342.57468
-14.541763 58.451595 353.62378
-14.326004 58.464638 352.39227
-13.102493 58.410725 351.72223
-12.620071 58.396881 351.09158
-12.507187 58.403069 350.4794
-13.64772 58.501724 348.70544
-10.335922 58.050884 348.0462
-10.216019 58.056446 347.43863
-9.3628998 58.022472 346.80524
-10.463486 58.117054 345.03491
-10.55983 58.454964 342.54547
-13.120773 57.830284 351.69247
-12.638351 57.816944 351.06189
-12.525467 57.823036 350.44974
-13.293503 57.899582 348.66058
-10.353134 57.47332 348.01682
-10.233231 57.478783 347.40924
-9.3801422 57.445908 346.77594
-10.479813 57.538059 345.00568
-10.967209 57.586609 343.81293
-10.956497 57.740486 343.16888
-10.457932 57.725853 342.55301
-15.219681 57.332108 352.98755
-14.36467 57.300411 352.33264
-12.657639 57.236835 351.03217
-12.543747 57.242893 350.42001
-13.683426 57.336624 348.64612
-10.250504 56.900917 347.37988
-10.129593 56.906235 346.77274
-10.982498 57.006294 343.78366
-10.485947 56.992447 343.16684
-9.9874115 56.978386 342.55167
-14.384048 56.718105 352.3028
-13.529984 56.687309 351.65103
-12.67598 56.656593 351.00241
-12.562088 56.66256 350.39029
-13.701797 56.753891 348.61639
-13.583878 56.759598 348.0032
-10.635361 56.341091 347.36423
-10.146835 56.328369 346.74335
-10.998764 56.4258 343.75436
-10.501266 56.412422 343.13757
-10.00267 56.398964 342.52246
-13.060593 55.940933 351.63727
-12.577072 55.929173 351.00687
-11.267929 55.835545 344.94055
-11.142044 55.840496 344.33261
-11.015121 55.845306 343.72504
-10.517563 55.832428 343.10834
-10.01799 55.819542 342.49323
-12.961655 55.213299 351.64172
-12.479172 55.202049 351.01141
-12.36528 55.207695 350.39975
-13.619614 55.593708 347.94373
-10.916611 55.205978 346.71072
-14.996872 55.97813 346.08478
-11.284256 55.254951 344.91116
-11.15834 55.259903 344.30322
-11.031387 55.264709 343.69568
-10.903519 55.269382 343.08859
-10.033279 55.239933 342.46396
-12.611313 54.616367 351.5936
-12.497452 54.621918 350.98163
-12.38356 54.627563 350.37006
-11.303604 54.643024 346.69449
-14.774948 55.094486 346.1282
-11.672195 54.690887 344.89325
-11.174637 54.679211 344.2738
-11.047714 54.683926 343.66632
-10.918839 54.688671 343.05927
-10.419266 54.676704 342.44366
-13.481827 54.062149 352.21387
-12.629654 54.036236 351.56378
-12.516769 54.041809 350.9519
-12.401932 54.047321 350.34027
-11.689529 54.078857 346.67816
-14.79332 54.508854 346.09851
-12.060196 54.125523 344.87527
-11.190933 54.098423 344.24432
-11.064041 54.103123 343.63687
-10.805252 54.112297 342.42328
-13.501114 53.480839 352.18396
-13.019608 53.471268 351.55225
-12.536057 53.461494 350.92206
-12.421188 53.466915 350.31049
-12.305283 53.472294 349.69928
-14.434097 53.907124 346.05576
-12.822922 53.574429 344.86911
-11.950638 53.548325 344.23669
-11.822769 53.552959 343.62802
-11.192245 53.546692 342.40295
-13.520432 52.899429 352.15402
-13.037949 52.890343 351.52234
-12.554398 52.881069 350.89218
-12.323593 52.891758 349.66953
-14.950058 53.33197 346.65317
-14.451523 53.321873 346.02591
-13.950974 53.311665 345.40033
-12.093887 52.961472 344.81616
-11.967026 52.966141 344.20718
-11.839066 52.970871 343.59854
-11.709213 52.975342 342.99033
-13.819962 52.310043 357.59323
-13.057236 52.309235 351.4924
-12.341934 52.311138 349.63962
-14.967484 52.746025 346.62326
-14.468918 52.736416 345.99603
-13.474442 52.564789 345.39563
-12.482925 52.393532 344.79819
-11.983353 52.383965 344.17761
-11.855423 52.388577 343.56903
-11.72554 52.393055 342.96085
-12.812881 51.342907 357.59589
-13.448227 51.741798 351.48074
-12.592026 51.719833 350.83234
-12.730972 51.743912 349.62619
-12.242386 51.735428 348.99899
-13.372604 51.833488 345.40314
-12.872025 51.824379 344.78018
-12.745132 51.829098 344.16992
-11.87178 51.806198 343.53946
-11.741898 51.810669 342.93134
-12.835098 50.764565 357.56586
-12.116196 50.888718 356.87268
-13.838242 51.172932 351.46902
-13.35173 51.165138 350.83765
-13.236832 51.170403 350.22498
-12.630997 51.017109 349.63208
-12.142441 51.009109 349.00497
-13.015244 51.236176 345.36102
-12.88942 51.240925 344.75049
-12.762497 51.245522 344.14029
-12.26088 51.236897 343.5202
-12.856339 50.186008 357.53571
-11.656509 50.155735 356.85175
-12.161362 50.278419 349.6214
-11.306046 50.258942 348.97928
-13.781113 50.677898 345.35593
-12.778915 50.661858 344.11066
-12.158005 50.507526 343.52872
-12.878677 49.607475 357.50555
-11.561478 49.435848 356.85474
-14.018997 50.030098 350.19922
-11.323318 49.679394 348.94949
-13.672653 50.097733 344.71448
-12.795273 50.078068 344.08093
-11.830093 48.726841 356.88147
-14.290848 49.312881 350.22269
-12.568741 49.128059 349.57825
-10.973862 49.08868 348.9039
-12.452377 49.307659 346.50412
-13.689072 49.512657 344.68457
-12.811661 49.49419 344.05121
-12.587051 48.546631 349.54831
-11.359909 48.519928 348.8898
-12.351456 48.580166 346.51154
-12.837631 47.87611 356.80161
-12.132492 47.586567 356.2334
-12.6064 47.965122 349.51834
-11.746994 47.949886 348.87576
-12.492691 47.993355 347.09164
-13.722885 48.342434 344.62491
-12.518478 47.017235 356.22644
-12.046829 47.013187 355.59183
-12.995529 47.392902 349.505
-11.39653 47.360077 348.82996
-12.511032 47.411022 347.06174
-12.387131 47.415375 346.45187
-13.62001 47.611656 344.63354
-15.600143 47.070614 356.22287
-13.757431 46.82832 349.5083
-12.894974 46.815201 348.86365
-13.273026 46.846218 347.06036
-13.149124 46.850624 346.44928
-15.130417 46.335155 356.20343
-13.056564 46.156239 355.508
-15.404282 45.61694 356.23056
-13.706528 45.596096 354.90884
-13.676376 45.665558 348.83566
-14.055435 45.694221 347.02908
-13.557724 45.690697 346.40314
-14.047104 45.863964 344.5556
-13.705917 44.721169 356.17535
-12.128983 44.698723 355.47079
-11.654282 44.696648 354.83786
-13.693741 45.081726 348.80542
-14.073776 45.1091 346.99902
-13.358475 44.133816 356.12146
-12.883865 44.132256 355.48575
-11.309769 44.112099 354.78574
-14.955978 44.850025 344.48029
-13.379807 43.553272 356.09103
-12.537369 43.546501 355.43262
-11.694809 43.539707 354.77722
-14.3564 43.930176 348.16412
-15.101974 44.238731 346.89105
-14.977097 44.243122 346.27728
-15.351273 44.268806 344.46207
-13.401169 42.972534 356.06052
-12.807114 42.831089 355.45996
-12.048447 42.780334 354.82288
-11.006699 42.679466 354.18585
-14.252914 43.349072 347.52112
-15.747665 43.68631 344.44379
-12.343277 42.106113 355.44186
-12.23439 42.110233 354.83081
-11.757675 42.110191 354.19855
-14.769089 42.764385 348.11929
-15.641953 43.083664 345.62952
-15.385239 43.092007 344.40167
-12.254654 41.530769 354.80042
-11.777939 41.53112 354.16818
-11.29924 41.531475 353.53751
-14.412613 42.17395 348.07333
-15.538132 42.351448 345.63843
-15.410294 42.355583 345.02457
-13.356277 41.233898 355.35587
-13.069382 41.027618 354.79681
-11.798233 40.952053 354.13785
-11.319504 40.952911 353.50717
-14.431046 41.588333 348.043
-15.306412 41.623661 345.03387
-15.404587 41.931263 342.51288
-12.919174 40.380566 354.17227
-11.705673 40.376678 353.49774
-14.825333 41.005756 348.02823
-15.933884 41.341331 343.10623
-15.04213 41.338375 342.47287
-12.459793 39.801411 353.50928
-15.342392 40.447201 344.97345
-15.363235 40.651806 343.08881
-14.559372 40.603405 342.47305
-12.848984 39.222229 353.49991
-14.362473 39.834759 347.33929
-14.588364 39.868214 343.09457
-14.076523 39.869919 342.47339
-15.564743 39.063774 354.10226
-15.332565 38.927261 353.52316
-13.123428 38.64558 352.87881
-13.886581 39.105888 347.33276
-15.115646 39.277958 343.68735
-14.604843 39.280251 343.06451
-14.092972 39.282551 342.44333
-15.023819 38.248077 353.50299
-13.010483 38.401482 343.68109
-14.622299 38.692101 343.03436
-13.277908 37.477711 353.42932
-12.652878 37.816051 343.63977
-12.930344 36.896378 353.37769
-12.07756 36.901451 352.72586
-15.402817 37.304581 346.70609
-13.177139 37.227036 344.22989
-12.670242 37.23111 343.60971
-12.890976 36.245411 353.36551
-11.980484 36.18259 352.7323
-14.839066 36.623741 346.68274
-13.193558 36.641472 344.1998
-12.686661 36.646141 343.57965
-12.552811 36.649708 342.97195
-12.250381 35.461895 352.75931
-13.00676 35.962872 344.19257
-12.583694 35.920692 343.59018
-13.730331 35.145916 353.32767
-14.354568 35.463375 344.17535
-13.631271 34.424694 353.33426
-13.229355 34.384174 352.72128
-12.541183 34.29985 352.10864
-14.892441 34.861565 346.59128
-13.416458 33.707176 352.72949
-12.560562 33.717964 352.07813
-15.287949 34.270653 346.57538
-14.782028 34.277496 345.94867
-13.807144 34.199509 344.12607
-12.888565 34.022381 343.55225
-12.580887 33.136105 352.04749
-15.684525 33.678463 346.55954
-12.905991 33.436836 343.52213
-14.081436 32.53421 352.09744
-15.702988 33.089455 346.52893
-14.818008 33.102058 345.8877
-14.423477 33.112503 344.05423
-15.721512 32.500458 346.49835
-16.713577 32.49361 344.09689
-14.306076 32.528015 343.41357
-14.615341 31.637175 351.36615
-16.118088 31.905561 346.48227
-15.971878 31.913595 344.04193
-15.078812 31.928526 343.4061
-14.942917 31.931974 342.79507
-15.262161 31.041674 350.76047
-16.64357 31.306135 347.08093
-15.758469 31.322039 346.43701
-15.609299 31.329412 343.99927
-14.582291 31.34897 342.754
-16.662094 30.715631 347.05017
-15.36235 30.552843 346.45084
-14.761459 30.472654 344.63852
-14.371902 30.621603 343.97409
-13.364304 30.500509 343.38284
-15.550583 29.866835 346.45731
-14.534622 29.88867 345.20563
-14.026657 29.899635 344.58246
-13.516586 29.910494 343.96097
-13.380722 29.913843 343.3526
-14.369888 29.208817 350.64975
-16.70015 29.53446 346.98856
-15.569138 29.27783 346.4267
-14.553146 29.300758 345.1752
-13.667923 29.320452 344.53931
-13.534073 29.323759 343.93063
-16.535538 28.736784 347.01932
-15.587631 28.688725 346.396
-14.195389 28.721628 345.13135
-13.685379 28.733622 344.50897
-13.550522 28.736902 343.90033
-15.606094 28.099522 346.36533
-14.720901 28.121492 345.72485
-14.212814 28.134089 345.10086
-13.702805 28.146685 344.47852
-13.567947 28.149965 343.86993
-15.392288 27.239164 350.05972
-16.002823 27.500126 346.34943
-15.115585 27.523283 345.70831
-14.485062 27.399624 345.12543
-13.405197 27.35767 343.9025
-15.411758 26.651493 350.02866
-16.909592 26.885773 346.96289
-16.021317 26.910122 346.31873
-15.511276 26.923899 345.69171
-13.737137 26.691837 343.90546
-16.929092 26.294594 346.93204
-16.039871 26.320021 346.28793
-15.152542 26.345575 345.647
-15.702103 25.466751 349.37198
-16.947647 25.703297 346.90115
-16.058365 25.729919 346.25717
-15.425827 25.608496 345.67227
-14.658981 25.7714 344.99188
-14.614639 25.584923 344.44678
-16.966202 25.111805 346.87027
-16.456192 25.127256 346.24109
-16.985764 24.520327 346.83936
-16.095383 24.549326 346.19553
-15.583298 24.565342 345.56885
-15.55806 24.561895 343.74774
-16.63768 23.665255 348.10413
-16.501541 23.806623 346.83484
-16.369705 23.809542 346.22153
-15.601852 23.975443 345.53809
-15.367142 23.88537 343.74164
-16.657242 23.074684 348.07312
-14.216202 23.152451 343.73538
-15.488144 22.654888 343.69885
-16.435654 21.898762 346.78409
-16.302811 21.901646 346.17123
-16.413986 22.174818 345.47366
-16.157669 22.042646 344.90396
-15.383163 21.929022 343.71146
-16.454178 21.307865 346.75317
-16.321365 21.310751 346.14038
-16.433029 21.300488 344.92981
-15.916824 21.319572 344.30441
-16.853043 20.70019 346.73788
-16.33989 20.719753 346.1095
-16.871597 20.108597 346.70691
-16.358444 20.128656 346.07861
-16.469101 20.117268 344.86826
-16.890121 19.516802 346.6759
-16.376968 19.537561 346.0477
-16.108322 19.543398 344.82382
-16.909714 18.925032 346.64487
-16.395523 18.946264 346.01675
-15.745499 18.970581 344.77936
-17.308609 18.314056 346.62939
-16.14241 18.360834 344.76212
-16.160904 17.76943 344.73132
-16.540665 16.981443 345.99155
-16.315292 17.175066 345.31198
-16.178482 17.178015 344.70047
-16.224564 16.315418 345.97931
