ply
format ascii 1.0
comment PCL generated
element vertex 1545
property float x
property float y
property float z
element camera 0
property float view_px
property float view_py
property float view_pz
property float x_axisx
property float x_axisy
property float x_axisz
property float y_axisx
property float y_axisy
property float y_axisz
property float z_axisx
property float z_axisy
property float z_axisz
property float focal
property float scalex
property float scaley
property float centerx
property float centery
property int viewportx
property int viewporty
property float k1
property float k2
end_header
-20.962749 63.331432 358.89539
-17.569416 64.32225 355.89978
-21.612005 62.83773 361.27698
-28.789059 63.221256 347.55038
-28.618982 63.176514 348.23425
-23.055834 63.028908 354.52179
-23.094345 62.950562 355.4458
-17.57464 64.483788 351.68512
-21.218731 62.905609 357.4971
-21.266888 62.826653 358.42014
-21.511906 62.250675 361.13721
-21.492496 62.103138 361.9274
-28.404631 63.077221 346.2757
-28.4053 62.688854 347.97717
-27.702967 62.661983 348.87067
-22.824144 62.856422 353.48865
-22.685804 62.492519 354.9599
-20.722029 62.583183 356.96915
-21.238199 62.305897 358.40378
-20.381203 62.305222 359.09082
-21.447239 61.697865 361.05875
-21.583193 61.485626 362.01596
-20.740997 61.482479 362.7067
-28.486752 62.456738 346.36688
-28.543482 62.213581 347.27313
-28.37295 62.169472 347.95737
-28.036705 62.081066 349.32553
-22.60335 62.365047 353.23392
-22.806747 62.016937 354.25171
-22.656294 61.970837 354.94293
-22.696363 61.894047 355.867
-18.031422 63.25248 352.24371
-21.495708 61.878201 357.00525
-21.352121 61.831745 357.69675
-20.954716 61.374737 360.54208
-20.90402 60.934864 362.918
-28.511162 61.693806 347.25333
-28.341393 61.649921 347.93832
-27.990469 61.636265 348.3855
-27.822744 61.592346 349.06995
-22.928511 61.54055 353.54257
-22.776564 61.494911 354.23395
-22.626141 61.449219 354.92514
-22.666882 61.373177 355.84998
-21.466837 61.356567 356.98895
-21.513802 61.280258 357.91202
-20.323584 61.262375 359.05814
-21.159273 60.758121 360.77689
-20.955872 60.539314 361.30014
-20.819427 60.49313 361.98749
-20.685331 60.446709 362.67545
-28.29705 61.203674 346.995
-28.126854 61.160202 347.68045
-27.958212 61.116585 348.36569
-27.608145 61.102757 348.81351
-27.258871 61.088711 349.26199
-23.087994 60.987938 353.76123
-22.746929 60.972736 354.21692
-22.406687 60.957363 354.67328
-22.257547 60.911926 355.36462
-21.364937 60.764923 356.845
-21.376532 60.654152 357.70654
-20.185825 60.635281 358.85309
-21.064606 60.066479 360.59543
-20.927244 60.02058 361.28381
-21.173244 59.916733 362.4274
-27.844597 60.831535 346.46423
-27.912374 60.669376 347.42249
-27.743277 60.62616 348.10822
-27.576435 60.582748 348.79459
-27.227222 60.568684 349.24295
-23.020857 60.540234 352.81488
-23.05769 60.465813 353.7435
-22.716595 60.450497 354.19925
-22.376352 60.43504 354.65546
-22.037638 60.419502 355.11307
-21.025215 60.37212 356.48776
-21.239597 60.027267 357.50085
-20.572697 59.994553 358.41962
-20.624269 59.919857 359.34241
-21.090084 59.473125 361.4967
-21.263575 59.300354 362.51501
-28.415766 60.514568 345.49136
-27.697193 60.177711 347.16373
-27.711536 60.105724 348.08923
-27.19478 60.048489 349.22321
-22.990398 60.017193 352.79724
-23.027292 59.943573 353.72586
-22.686289 59.928158 354.18158
-21.669472 59.881161 355.55353
-20.995581 59.849243 356.47073
-20.978943 59.34164 359.78836
-20.888731 59.12685 360.45865
-21.061398 58.954594 361.48041
-28.016441 60.050835 344.98792
-28.188772 59.712894 346.00986
-28.017355 59.670425 346.69647
-27.129017 59.671047 347.35266
-27.14583 59.599491 348.28
-26.979723 59.556629 348.96707
-22.960094 59.493977 352.77948
-22.996925 59.421143 353.70825
-22.845406 59.376999 354.39926
-21.256781 59.415825 355.06555
-21.240788 59.163284 356.73117
-20.463991 59.024078 357.46078
-20.202486 59.078632 358.04758
-20.375336 58.905956 359.07901
-20.979305 58.508423 360.54724
-21.033503 58.435902 361.46497
-28.064688 59.395058 345.01465
-28.156269 59.191303 345.9902
-27.985523 59.14909 346.67755
-26.929277 59.106583 348.02112
-21.227087 58.892048 355.04861
-21.485994 58.478447 356.99164
-19.63587 58.928753 355.72141
-20.435059 58.501244 357.44449
-20.293213 58.456768 358.13718
-20.538511 58.356522 359.29422
-20.950497 57.988792 360.53104
-21.124382 57.819084 361.55334
-28.295309 58.711437 345.28229
-28.123705 58.669529 345.97055
-27.95299 58.627617 346.65784
-27.783676 58.585651 347.34528
-26.713242 58.612526 347.763
-21.779339 58.856812 351.46265
-22.746313 58.403873 353.43652
-21.19733 58.368164 355.03168
-19.606144 58.403278 355.70435
-20.264341 57.934135 358.12085
-20.785152 57.673992 359.55209
-20.921778 57.46917 360.51474
-20.869743 57.291595 361.2468
-28.262562 58.189156 345.26263
-28.172319 58.015141 345.99692
-28.001635 57.973633 346.68433
-27.832563 57.931973 347.37155
-27.562635 57.785004 347.86511
-26.681259 58.09008 347.74411
-26.330549 58.075535 348.19391
-22.798954 57.746929 353.4631
-22.80225 57.641212 354.32748
-21.251162 57.709873 355.05835
-20.961182 57.622658 356.4473
-19.697817 57.778625 355.79572
-20.375761 57.455292 357.41046
-20.23535 57.411507 358.10464
-20.89373 56.949375 360.49924
-27.864214 57.720875 344.7594
-27.530043 57.263927 347.84549
-21.992531 57.642712 351.71072
-22.852327 57.090134 353.49045
-22.701174 57.047443 354.18246
-21.305115 57.051888 355.08502
-19.352327 57.379074 355.43378
-20.154264 56.958767 357.16022
-20.205715 56.888744 358.08765
-20.67318 56.45562 360.25244
-27.659134 57.15659 345.42877
-21.072519 57.42923 349.74728
-21.702274 56.966934 352.19589
-22.670748 56.524815 354.16492
-21.511625 56.432995 356.23148
-20.12451 56.435081 357.14325
-20.297297 56.268009 358.17798
-20.314445 56.16304 359.0401
-20.261589 55.986481 359.77567
-27.258652 56.685818 344.92459
-27.449202 56.513287 346.04883
-27.273388 56.393013 346.68848
-27.017071 56.404991 347.28259
-26.748301 56.257736 347.77777
-26.398567 56.242527 348.22794
-25.966774 56.35984 348.63275
-25.804329 56.318714 349.32336
-21.617409 56.820473 350.45273
-21.480169 56.467453 351.93912
-22.070953 56.079422 353.43869
-21.48196 55.910309 356.2146
-20.094662 55.911209 357.12637
-20.23208 55.709358 358.09824
-20.369986 55.50769 359.0668
-20.232687 55.465054 359.75949
-27.041243 56.187447 344.6619
-27.050365 55.816277 346.37857
-26.715586 55.735245 347.75821
-26.039648 55.638611 349.58807
-25.692966 55.623051 350.03943
-22.291754 56.014927 350.30798
-22.136875 55.973209 351.00507
-21.640963 55.915195 352.16068
-21.298525 55.899055 352.61899
-21.700743 55.538651 353.87952
-21.552641 55.496742 354.57434
-21.260462 55.412849 355.96274
-20.313774 55.273277 357.37204
-20.862326 54.978245 358.82153
-21.098925 54.806427 359.92639
-20.970049 54.844475 360.66522
-26.46739 55.673378 344.84738
-26.665689 55.277897 346.8085
-26.867714 55.187756 347.97873
-26.702673 55.147575 348.66779
-26.355139 55.132084 349.11853
-26.007542 55.116566 349.56934
-22.260258 55.488346 350.28964
-22.296236 55.421585 351.22675
-23.070099 55.013729 352.96286
-21.479155 55.039165 353.625
-21.331358 54.997612 354.32089
-21.230738 54.889462 355.94589
-20.341055 54.660999 357.38449
-21.024281 54.432358 359.03683
-21.054613 54.125732 359.81268
-20.727068 54.108051 360.27325
-26.43507 55.147861 344.82867
-26.254253 54.964088 345.4313
-26.632881 54.754425 346.78885
-26.835577 54.665535 347.96002
-22.348999 54.762653 351.25311
-21.300747 54.472996 354.30334
-21.284325 54.233505 355.97165
-21.13448 53.95256 358.32886
-20.804277 53.935097 358.78928
-26.600075 54.230839 346.76932
-26.61875 54.167107 347.70096
-26.290895 54.087822 349.08099
-25.944183 54.072067 349.53247
-22.782103 54.055443 351.75769
-22.819393 53.990868 352.69086
-21.270136 53.94817 354.28574
-21.124596 53.907211 354.98233
-20.787926 53.890213 355.44214
-21.034107 53.358414 358.18607
-21.32515 53.10247 359.3204
-20.996689 53.084759 359.78043
-20.669203 53.066978 360.241
-26.567205 53.707058 346.74979
-26.66898 53.512875 347.72729
-26.320072 53.497128 348.17807
-26.156618 53.457863 348.86829
-22.561186 53.554302 351.5011
-23.155359 53.299503 353.07193
-21.240168 53.423286 354.26898
-21.093895 53.382797 354.96481
-21.172049 53.131821 355.84305
-21.765337 52.639919 358.15369
-21.814682 52.57695 359.07532
-20.967787 52.564125 359.76431
-26.35004 53.206398 346.48959
-26.207123 52.804111 348.89447
-22.52969 53.028835 351.48291
-23.114069 52.655834 352.98001
-21.188835 52.656334 354.10312
-21.279711 52.530411 355.96509
-21.925064 52.096706 358.36847
-21.974897 52.034554 359.28973
-21.319347 51.998997 360.20853
-26.317081 52.681927 346.47012
-26.15143 52.643265 347.16254
-25.989561 52.303905 348.63599
-21.033192 52.333374 354.93063
-21.249712 52.006832 355.94839
-22.037184 51.61562 357.66147
-21.896009 51.576092 358.35248
-26.28409 52.157448 346.45071
-26.201782 51.988228 347.18869
-25.948425 52.000904 347.78574
-25.957363 51.780773 348.61725
-21.150936 52.377876 349.9151
-22.863363 51.630676 352.70776
-22.185017 51.59647 353.62366
-21.127491 51.605877 354.06793
-21.028124 51.659061 354.87119
-22.007307 51.094543 357.64484
-21.866163 51.055309 358.33585
-21.726755 51.016113 359.02658
-26.066132 51.654625 346.18961
-25.903288 51.316994 347.66687
-21.119198 51.849014 349.89697
-22.831869 51.106606 352.68976
-22.153553 51.072197 353.6055
-21.09676 51.080563 354.05051
-21.142075 51.020004 354.98312
-22.119368 50.612091 356.93625
-21.977428 50.573261 357.62811
-21.921276 50.403713 358.36179
-21.507639 50.516605 358.77942
-21.179087 50.498581 359.23953
-20.936045 50.349621 359.74179
-26.368227 51.204613 344.78284
-25.661407 51.172535 345.68451
-25.495972 51.134773 346.37955
-25.33145 51.097027 347.07385
-21.087427 51.320034 349.87875
-22.801075 50.582275 352.67236
-21.742329 50.589916 353.11353
-21.404131 50.572475 353.57339
-21.302963 50.474209 355.20227
-21.780468 50.205204 356.58005
-26.688507 50.694527 344.31247
-26.603058 50.526978 345.05225
-26.518553 50.359398 345.79123
-25.547209 50.478096 346.40625
-25.382687 50.440735 347.10046
-20.902946 50.752548 350.56155
-22.050615 50.081894 352.63696
-21.711565 50.064491 353.0961
-21.03511 50.029388 354.01556
-20.889479 49.991154 354.71246
-21.869518 49.588749 356.66901
-21.917612 49.530506 357.59485
-21.777321 49.492516 358.28653
-21.448675 49.474384 358.74686
-26.099823 50.230774 343.55905
-26.653288 49.871223 345.07858
-26.48547 49.834419 345.77185
-20.858236 50.061409 350.44321
-22.019793 49.556366 352.61954
-20.2719 50.05711 351.51022
-20.959337 49.561821 353.06232
-21.004257 49.503674 353.99826
-20.859325 49.465763 354.6958
-21.649454 49.086174 356.4183
-21.972694 48.8787 357.62085
-21.747993 48.971294 358.27072
-21.50318 48.822937 358.772
-26.250793 49.682892 343.78345
-26.452295 49.309258 345.7525
-19.939018 49.968071 348.56247
-21.01125 49.431026 350.61542
-20.668932 49.413593 351.07632
-20.326799 49.396175 351.53711
-21.119186 49.015347 353.28229
-20.973402 48.977848 353.9808
-20.828442 48.94025 354.67841
-21.429329 48.582512 356.16769
-21.838018 48.246262 357.41391
-21.368656 48.190655 358.56619
-26.217466 49.155617 343.76419
-26.400936 48.839687 344.79501
-26.418451 48.784035 345.73248
-26.067408 48.76733 346.18378
-25.717157 48.750587 346.63568
-25.283897 48.863762 347.04309
-20.187185 49.283363 348.83389
-20.034931 49.245918 349.5386
-20.637163 48.884834 351.05826
-20.765335 48.696728 352.04269
-21.08824 48.489029 353.26495
-20.942425 48.451836 353.9635
-20.605877 48.433983 354.42438
-21.588539 48.040169 356.3844
-21.478062 47.706017 357.85733
-25.997189 48.351841 344.28717
-26.034142 48.24176 346.16455
-25.683922 48.224922 346.61639
-25.334555 48.208035 347.06897
-20.39562 48.657021 348.15607
-20.277119 48.657528 348.92676
-20.09041 48.582924 349.56622
-20.412704 48.375202 350.79889
-20.26387 48.338181 351.50168
-21.057325 47.962597 353.24759
-20.911478 47.9258 353.94614
-20.575632 47.90781 354.40775
-21.559088 47.51704 356.36862
-21.312719 47.368797 356.87134
-21.137089 47.294991 357.50156
-25.981834 47.770309 345.20773
-25.630178 47.753418 345.65973
-25.650717 47.699249 346.59717
-25.302021 47.682114 347.05038
-29.328251 45.971256 355.23001
-29.168308 45.858032 355.85904
-20.643116 47.974457 348.42703
-20.490435 47.93782 349.13211
-20.145279 47.92028 349.59311
-19.994125 47.883621 350.29672
-20.038954 47.827957 351.24268
-21.026348 47.435974 353.23026
-20.96699 47.269161 353.97275
-20.730143 47.282261 354.57745
-21.217686 47.104527 356.01028
-25.762169 47.262047 344.94376
-25.596823 47.226742 345.64035
-25.43169 47.191479 346.33542
-24.920671 47.138939 347.48495
-24.572893 47.121746 347.93878
-29.291536 45.379253 355.16364
-29.137819 45.344902 355.84216
-28.985016 45.310551 356.51974
-21.150103 47.442223 348.19247
-20.99608 47.406067 348.89615
-20.113205 47.389313 349.57504
-19.962143 47.353065 350.27866
-20.200148 47.279835 351.46545
-20.803659 46.927368 352.9747
-19.843756 46.818775 355.29733
-19.737766 46.485386 356.78125
-25.728781 46.734879 344.92453
-25.562763 46.70002 345.62036
-25.398304 46.665112 346.31613
-24.887407 46.612766 347.46567
-24.727251 46.577793 348.1615
-29.416203 44.899513 354.4682
-29.02704 44.965565 354.88812
-29.106628 44.831615 355.82452
-28.954496 44.797592 356.50284
-28.803221 44.76368 357.18033
-21.050949 46.744728 348.923
-19.930128 46.822369 350.26062
-19.975018 46.768417 351.20657
-20.771828 46.400192 352.95676
-20.482611 46.328743 354.35583
-20.147526 46.310505 354.81799
-20.039003 45.978508 356.30179
-24.970112 46.225246 344.86868
-25.359728 46.058277 346.24643
-25.287033 45.974976 347.03809
-25.091019 45.90316 347.66721
-25.049726 45.776859 348.47293
-29.384157 44.385475 354.44995
-29.229004 44.351883 355.12851
-29.076019 44.318176 355.80771
-28.744352 44.299919 356.2569
-28.592741 44.266315 356.93475
-20.778912 46.309776 349.56296
-19.898144 46.291615 350.24249
-19.943796 46.238495 351.18927
-21.05381 45.763371 353.28653
-20.959782 45.560604 353.96411
-19.783024 45.765331 355.26413
-24.749531 45.713844 344.60403
-25.338758 45.320076 347.06445
-25.176802 45.285915 347.75909
-25.016491 45.251682 348.45377
-29.173737 43.886284 354.20135
-29.198393 43.838036 355.11166
-29.044676 43.804787 355.79022
-28.71307 43.786324 356.23923
-28.676388 43.664524 357.02148
-20.448103 45.683174 349.10324
-20.104412 45.665146 349.56543
-19.98933 45.667923 350.33582
-20.131935 45.541687 351.36893
-21.26511 45.052723 353.48611
-24.715899 45.18478 344.5849
-24.551256 45.15078 345.28363
-25.305401 44.794003 347.04517
-24.957775 44.776218 347.49872
-24.983866 44.726261 348.43527
-28.963409 43.386082 353.95264
-28.988216 43.338505 354.86417
-20.503918 45.021561 349.13071
-20.202585 44.952286 350.53873
-20.05439 44.917507 351.24237
-21.042545 44.542431 353.23044
-18.841526 44.878681 352.3909
-24.330002 44.638084 345.01953
-24.712629 44.314899 346.29745
-24.924297 44.249947 347.47955
-24.951212 44.200745 348.41684
-28.752348 42.885056 353.70319
-28.777403 42.838211 354.61588
-28.623775 42.805504 355.29584
-28.29211 42.786926 355.74631
-28.141199 42.754307 356.42648
-20.471079 44.490543 349.112
-19.977364 44.437908 350.27832
-20.022375 44.38765 351.22443
-24.492596 43.802608 346.03491
-24.704447 43.738781 347.21841
-24.544718 43.705475 347.91528
-28.565853 42.336872 354.36682
-28.412561 42.304527 355.04785
-28.260675 42.272232 355.72885
-28.192131 42.114742 356.45032
-20.630806 43.943947 349.33643
-19.945227 43.907166 350.26041
-19.797367 43.873119 350.96524
-24.790443 43.121552 347.31015
-24.597633 43.050846 347.94168
-28.246733 42.005356 353.16095
-28.354366 41.834534 354.11771
-28.201317 41.802547 354.7999
-28.063467 41.488529 356.24493
-20.791113 43.397991 349.56161
-19.913244 43.376072 350.2424
-24.076334 42.727779 346.45154
-24.276739 42.424675 347.48364
-28.297207 41.362995 353.18506
-28.322901 41.318455 354.10016
-28.169823 41.28677 354.78238
-27.837608 41.267971 355.23346
-27.506157 41.249123 355.68515
-20.175207 42.829929 348.76184
-19.880985 42.845009 350.22449
-28.075344 41.140133 352.16547
-28.265619 40.845909 353.16766
-28.111259 40.814621 353.85098
-28.1285 40.612743 354.66608
-27.888601 40.627205 355.25723
-19.843019 42.23222 350.15509
-23.460243 41.953888 345.83401
-28.053034 40.340885 352.91647
-27.717796 40.321983 353.36771
-15.725646 41.726582 352.21643
-23.062201 41.162327 346.11758
-27.839775 39.834877 352.66461
-27.86672 39.792511 353.58282
-27.714315 39.761818 354.26727
-27.381428 39.742729 354.71896
-19.960203 40.993164 350.25897
-27.626577 39.3279 352.41263
-27.653738 39.286266 353.33209
-27.319386 39.267128 353.78391
-26.986439 39.247906 354.23694
-26.653734 39.228764 354.68982
-25.990831 39.190243 355.59756
-19.928038 40.461994 350.24115
-27.413321 38.819813 352.16068
-27.25881 38.789833 352.84705
-27.106037 38.759804 353.53329
-27.122087 38.48085 354.30255
-26.804306 38.699726 354.90482
-25.959152 38.67186 355.58002
-27.380726 38.30048 352.14252
-27.2271 38.27076 352.82965
-27.074297 38.241123 353.51587
-26.954941 38.171585 355.11978
-19.328882 39.391739 350.4256
-27.166767 37.790939 351.88983
-27.012621 37.76162 352.57721
-27.126083 37.598206 353.54007
-26.974869 37.569016 354.22623
-26.824598 37.539726 354.91144
-26.592665 37.634583 355.55603
-26.612011 37.357296 356.32211
-19.10235 38.870815 350.16452
-24.02652 38.439194 344.69678
-24.052916 38.398708 345.6434
-26.615374 37.261089 352.08875
-27.026869 36.926811 354.25024
-26.695232 36.907124 354.70355
-26.216442 36.858582 355.8432
-19.069969 38.338253 350.14676
-24.079527 37.782047 344.72293
-24.105282 37.742622 345.66895
-24.320492 37.69305 346.85712
-26.400286 36.749512 351.83551
-26.795761 36.693546 353.2291
-26.995068 36.40852 354.23291
-26.663431 36.388844 354.68616
-26.332529 36.36911 355.14014
-26.184763 36.340603 355.82574
-20.136374 37.539295 350.48251
-24.232298 37.241863 344.94888
-24.071436 37.212959 345.64999
-23.999262 37.057911 346.39594
-23.769556 37.397518 347.20667
-26.514263 36.030689 353.70682
-26.63151 35.870365 354.66885
-26.30076 35.850632 355.12271
-25.970713 35.830727 355.57718
-23.849575 36.692371 345.38593
-23.374962 36.606544 347.48962
-26.567026 35.387531 353.73138
-26.23469 35.367645 354.1853
-25.903238 35.347824 354.63974
-24.002769 36.153271 345.61148
-27.116924 35.031101 352.76514
-26.534401 34.868095 353.71332
-24.106905 36.231834 339.53229
-23.837069 36.086098 340.03427
-21.923004 36.359089 341.40314
-23.780907 35.631493 345.34741
-23.709372 35.478111 346.09427
-23.55187 35.450241 346.7962
-23.482349 35.296932 347.5412
-26.663645 34.504299 352.19125
-26.834848 34.3685 353.242
-26.50248 34.348511 353.69604
-26.170845 34.328487 354.15067
-24.51697 35.589954 339.1041
-23.88135 35.705379 339.25897
-23.801239 35.551041 340.01395
-22.174255 35.762871 340.7876
-23.417072 34.802864 346.57736
-26.772072 33.882294 352.30133
-26.802864 33.848919 353.22476
-26.470404 33.828842 353.6788
-23.965151 35.138077 338.42725
-24.12262 35.035488 339.53809
-23.764801 35.015938 339.99298
-22.036833 35.107494 340.56229
-22.153074 34.945385 341.57111
-26.739202 33.361786 352.28339
-26.770697 33.329144 353.20761
-26.438419 33.308964 353.66147
-26.106846 33.28883 354.11603
-19.327713 34.65416 348.8475
-19.940413 34.351612 350.375
-24.067596 34.534897 338.55698
-24.086088 34.500275 339.51718
-23.728971 34.480682 339.97269
-22.091122 34.443752 340.58957
-22.118008 34.409191 341.55145
-23.446095 33.950504 344.93192
-23.505907 33.769444 345.8367
-22.916765 33.920895 346.07147
-26.524696 32.846855 352.03073
-19.100111 34.127254 348.58435
-19.714001 33.82671 350.11368
-17.800663 33.392784 354.65143
-17.380955 33.498764 355.07709
-17.247562 33.472034 355.78387
-23.842436 34.00573 338.28299
-24.138638 33.839546 339.54364
-23.693111 33.945221 339.95258
-22.055292 33.9067 340.56924
-23.442675 33.271416 344.86911
-23.2838 33.244961 345.57266
-23.126389 33.218662 346.27606
-22.970015 33.192348 346.97858
-26.125311 32.336578 351.53943
-26.340977 32.300007 352.70309
-26.191072 32.274361 353.39233
-26.042604 32.248783 354.08157
-19.439953 33.333771 348.89908
-19.48823 33.300747 349.853
-17.963747 32.855953 354.87311
-18.024813 32.823761 355.8176
-22.019402 33.369442 340.54892
-23.0609 32.71965 345.30792
-22.903122 32.693623 346.01169
-22.935865 32.661774 346.95975
-26.275883 31.809301 351.75858
-26.393343 31.656975 352.72665
-26.061098 31.636448 353.18185
-19.406536 32.800064 348.88086
-19.643747 32.680256 350.02621
-18.067904 32.351341 354.14987
-18.269318 32.254543 355.2355
-23.769039 32.932224 338.24118
-23.599667 32.906181 338.95062
-23.620539 32.874065 339.91156
-22.174431 32.826077 340.78082
-23.184616 32.213516 344.58377
-23.025986 32.18782 345.28839
-22.869032 32.162163 345.9928
-22.901745 32.131203 346.94101
-26.05991 31.291964 351.50449
-18.036163 31.820223 354.13293
-18.096647 31.78969 355.07941
-23.543146 32.400921 337.96637
-23.556696 32.206398 338.82446
-23.672569 32.21336 339.93707
-22.228292 32.163692 340.80728
-22.613111 31.665817 344.77588
-22.834118 31.63065 345.97339
-22.868357 31.600401 346.92297
-25.843966 30.773548 351.25018
-25.87674 30.744928 352.17896
-25.54303 30.724358 352.63422
-18.199585 31.284441 354.35593
-23.516136 31.587948 338.75024
-23.348013 31.562647 339.45987
-22.767469 31.128315 345.00333
-22.799908 31.098881 345.95462
-22.733561 30.950033 346.70374
-25.65976 30.226353 351.92429
-25.596495 30.080286 352.65817
-25.264433 30.059614 353.1145
-24.51614 30.140261 353.98743
-18.257963 30.628622 354.38123
-23.479361 31.051041 338.72943
-23.312061 31.026079 339.43976
-23.144947 31.001175 340.14844
-22.543743 30.59964 344.7377
-22.196972 30.579123 345.19714
-22.63413 30.270515 347.43298
-25.443298 29.706732 351.67041
-25.282131 29.442476 352.20953
-23.253805 30.517994 338.45551
-23.085499 30.493387 339.16553
-23.108845 30.464813 340.12836
-22.352335 30.04228 345.42502
-22.196877 30.018118 346.13092
-22.78919 29.736458 347.6586
-25.113216 29.136616 353.03842
-24.781946 29.115894 353.49545
-22.859516 29.959642 338.89197
-22.692949 29.935432 339.60306
-22.527941 29.911276 340.314
-22.061773 29.364904 345.91037
-22.376621 29.211674 347.15109
-25.346674 28.55542 352.43417
-25.252619 28.371349 353.10324
-24.922386 28.35037 353.5607
-24.592186 28.329395 354.01804
-19.822632 29.31381 350.30179
-22.301224 29.377134 340.04108
-21.963566 28.685041 346.64276
-25.096977 27.994507 352.11502
-25.220268 27.848963 353.08615
-24.889303 27.827951 353.54279
-24.559866 27.806929 354.00085
-24.155687 28.794022 338.74323
-22.429703 28.862888 339.30902
-22.074417 28.841995 339.76822
-25.150475 27.349941 352.13879
-24.818657 27.328825 352.59628
-24.342245 27.285515 353.74796
-18.838896 28.234142 350.00092
-23.96019 28.218693 338.48477
-24.040388 28.111425 339.47787
-23.784193 28.211737 340.13928
-21.683119 28.282747 340.2074
-25.082146 26.849195 351.18985
-24.814018 26.908178 351.77783
-24.786276 26.805349 352.57916
-24.45455 26.784227 353.0365
-24.124531 26.763012 353.49509
-18.806026 27.70018 349.98355
-23.843672 27.662106 338.34476
-24.025127 27.551435 340.4166
-23.672281 27.530325 340.87354
-24.899862 26.303253 351.86639
-24.75304 26.281725 352.5614
-23.906178 26.239557 353.2413
-18.915371 27.188152 349.25476
-18.812677 26.896833 350.76205
-23.946148 27.062731 338.47473
-23.966623 27.039412 339.43661
-23.800943 27.017134 340.14551
-23.636055 26.995064 340.85364
-24.842062 26.041553 351.07123
-24.682455 25.779095 351.61176
-24.350056 25.757769 352.06985
-24.059587 25.715567 353.46085
-18.88171 26.653654 349.23666
-23.908428 26.525776 338.4534
-24.019783 26.380865 339.46265
-23.854164 26.359001 340.17148
-23.689367 26.337217 340.87955
-24.278858 25.253235 351.11783
-24.130939 25.232513 351.81387
-23.985247 25.211689 352.51062
-18.601526 26.057501 348.87198
-23.495218 25.988844 337.9263
-23.379326 25.167677 348.43701
-23.912523 24.706202 351.55869
-23.952682 24.686829 352.49353
-19.384481 25.339014 349.77719
-23.457344 25.450689 337.905
-23.290413 25.429375 338.6167
-23.774893 24.479021 348.87903
-23.546951 24.158825 352.00003
-19.492573 24.744801 349.9021
-23.25263 24.891525 338.59531
-23.082218 24.707191 339.20038
-23.106937 24.68746 340.16397
-22.9415 24.585144 340.82132
-23.740559 23.950649 348.86066
-23.679766 23.810404 349.60364
-23.442949 23.910999 350.26154
-22.775925 23.867996 351.18253
-19.123463 24.270254 349.49664
-23.231722 24.089235 339.37964
-22.878572 24.067379 339.83823
-22.715302 24.047058 340.5491
-23.596878 23.385481 350.48462
-23.571596 23.555695 339.86374
-23.672533 22.893578 348.82458
-24.442932 22.804337 339.98193
-24.188902 22.90555 340.64392
-23.596695 22.267141 348.69473
-23.578077 22.226416 349.54993
-23.243605 22.204615 350.01001
-22.998274 22.062853 350.51215
-22.333538 22.019209 351.43497
-24.053801 22.246817 340.41748
-23.594618 21.593143 348.63113
-23.258711 21.571095 349.09109
-22.923656 21.549105 349.55173
-22.964733 21.534744 350.49442
-21.922709 21.483366 350.93628
-23.994442 21.726509 339.43774
-23.830135 21.70779 340.147
-24.106745 21.778875 341.49286
-23.225048 21.041992 349.07346
-22.889994 21.019995 349.534
-22.743387 21.002234 350.23599
-23.604549 21.167698 339.87411
-23.817774 21.157373 341.08636
-23.656914 21.139135 341.7951
-23.062361 20.645279 348.06683
-23.003094 20.508274 348.81281
-22.85557 20.490835 349.51556
-22.709726 20.473427 350.21826
-21.856209 20.424797 350.90149
-23.567926 20.630939 339.85455
-23.405449 20.613018 340.56485
-23.432457 20.599607 341.52533
-22.968485 19.978519 348.79443
-22.821815 19.961521 349.49796
-22.675972 19.944513 350.20062
-21.450474 19.981207 352.24957
-23.179375 20.071636 340.29233
-23.395315 20.064112 341.50497
-23.236347 20.046663 342.21469
-22.2656 19.40432 349.69974
-21.836735 19.354992 351.81061
-21.885042 19.344286 352.75208
-22.764486 19.523676 339.76746
-22.981464 19.517502 340.98337
-23.01082 19.505987 341.94446
-21.916208 19.07082 347.59805
-22.188423 18.884521 348.73441
-22.042915 18.868216 349.43964
-22.133213 18.848219 351.33011
-21.803043 18.826174 351.79297
-22.187521 18.956999 339.95514
-22.785267 18.964117 341.67416
-22.301674 18.36935 348.01138
-22.154577 18.353403 348.71677
-22.431246 18.341465 350.85101
-22.100222 18.319361 351.31317
-22.150135 18.418295 339.93484
-21.327217 18.048309 346.92758
-22.298464 17.687256 350.63376
-22.156311 17.672094 351.33707
-21.916443 17.531479 351.84103
-21.653563 17.593012 352.43668
-21.953506 17.863518 340.62881
-21.795212 17.847643 341.34219
-21.48258 17.521708 347.15479
-22.212523 17.025013 351.36096
-21.882689 17.002758 351.82339
-21.554409 16.980408 352.2872
-21.219833 17.279219 341.53241
-21.574097 16.722839 349.83212
-21.521387 16.451551 352.27026
-21.183851 16.740419 341.51349
-19.49321 16.909861 340.36514
-21.267183 16.44026 347.82794
-21.819548 16.082256 350.09811
-21.678127 16.068188 350.80368
-21.348232 16.045794 351.26761
-21.108913 15.905428 351.77237
-20.697327 15.630071 347.86832
-20.553923 15.61623 348.57861
-21.355923 15.402401 350.34412
-21.075861 15.375471 351.7554
-20.000561 15.851587 341.08856
-20.519194 15.082774 348.56024
-21.042656 14.84541 351.73859
-20.157724 15.319754 341.32336
-19.128458 15.140196 340.81799
-17.066017 15.389551 342.04321
-16.720161 15.366768 342.5127
-20.725885 14.555796 349.7406
-20.767115 14.307858 350.53082
-17.564644 14.628224 341.64526
-17.124395 14.725196 342.06937
-17.011328 14.755475 342.86331
-19.92547 13.982247 348.74561
-17.086983 14.066062 340.13275
-17.528387 14.084332 341.62622
-17.379826 14.071657 342.34988
-17.23279 14.059024 343.07352
-16.889589 14.03604 343.54318
-18.258604 13.727567 346.87219
-19.366081 13.414275 348.94977
-19.612661 13.424092 350.15073
-18.670538 13.489325 341.22562
-17.586918 13.421078 341.65225
-17.438448 13.408808 342.37579
-17.291504 13.396572 343.09937
-17.051302 13.503847 343.77774
-18.059322 13.138689 346.61938
-19.524406 12.890657 349.17703
-19.386221 12.879153 349.88947
-17.99155 12.781464 341.20996
-17.64542 12.758029 341.67828
-17.497133 12.746247 342.40176
-17.350372 12.734516 343.12521
-18.024866 12.599791 346.60165
-19.104574 12.332436 348.66876
-19.159107 12.333173 349.62729
-17.718601 12.475348 340.11847
-17.371462 12.451818 340.58786
-17.609255 12.214337 341.65924
-17.460968 12.202857 342.38278
-17.314207 12.191626 343.1062
-17.907709 12.035075 346.46588
-19.070332 11.796833 348.65115
-18.738544 11.773958 349.1196
-18.125368 11.835025 339.67688
-17.939333 11.780151 340.33087
-17.918274 11.693927 341.17136
-17.572266 11.670394 341.6395
-17.424711 11.659467 342.36377
-17.278805 11.648579 343.08783
-16.936642 11.625238 343.55792
-16.99032 11.627146 344.534
-18.017815 11.443066 346.59454
-18.704273 11.238156 349.10202
-18.373369 11.215328 349.57104
-18.031557 11.160709 340.42758
-17.881226 11.149987 341.15167
-17.535948 11.126401 341.62054
-17.388515 11.115876 342.34467
-17.242517 11.105489 343.06879
-16.901117 11.082098 343.53955
-16.954948 11.084901 344.51569
-17.982595 10.904016 346.57623
-18.614765 10.698811 348.12366
-18.670031 10.702353 349.08438
-18.187101 10.46344 340.55386
-17.939939 10.488031 341.17764
-17.49954 10.582314 341.60159
-17.352169 10.572284 342.32581
-17.206354 10.562294 343.0498
-17.062189 10.552358 343.77356
-17.752705 10.35138 346.30948
-18.442184 10.152623 348.82132
-18.733852 9.8780861 341.24527
-17.463284 10.038122 341.58267
-17.315912 10.028487 342.30685
-17.170799 10.018952 343.03149
-16.82946 9.9954624 343.50223
-17.718128 9.8116837 346.29187
-18.534956 9.5432014 348.91397
-18.697504 9.3352919 341.22638
-17.426203 9.4938803 341.56305
-17.146812 9.3916197 342.06323
-17.134453 9.475563 343.0126
-17.051535 9.3048496 343.71085
-17.431355 9.2515745 345.05164
-17.486742 9.257349 346.02356
-17.833359 9.1609316 347.28488
-18.466475 8.9632483 348.82767
-17.23992 8.7907372 342.17007
-17.193592 8.8146048 343.03818
-16.948109 8.6735344 343.55313
-18.282698 8.535677 347.806
-18.43272 8.4266987 348.81091
-17.397604 8.1622133 342.33932
-17.252857 8.1539755 343.06381
-18.535686 7.8976402 348.07742
-17.50762 7.6263895 341.59579
-17.361286 7.618463 342.32043
-17.21718 7.6106324 343.04562
-17.616348 7.5269403 345.29187
-18.531902 7.3219376 348.07352
-16.412642 7.440464 346.45471
-17.324816 7.0746217 342.30157
-17.180862 7.0672526 343.0267
-16.942825 7.1768155 343.70734
-17.676008 6.8697453 345.31726
-18.045542 6.8286986 347.53238
-17.145128 6.5237303 343.00864
-16.805037 6.499927 343.47946
-17.640484 6.3289795 345.2991
-17.500772 6.3224807 346.02023
-17.881447 6.2789297 347.34973
-16.908676 5.8126287 342.63571
-17.061781 5.8576694 343.75815
-17.262798 5.819798 344.88153
-17.465403 5.7820973 346.00204
-18.297094 5.6157098 347.80197
-17.121471 5.1987128 343.78342
-17.527628 5.1440387 345.1459
-18.001133 4.9711137 347.3992
-19.889046 4.4115276 345.26132
-20.188665 3.8978221 344.77594
243.05081 25.276873 -103.85159
-17.005423 126.76036 376.5993
-17.589649 126.17351 376.2923
-17.013475 125.94806 376.72324
-16.381945 125.86328 377.41238
-14.962256 123.88966 381.89703
-17.586658 125.51242 376.33829
-16.999344 125.44024 376.69034
-16.356125 125.19849 377.62506
-15.563422 123.39229 381.30927
-14.932865 123.15829 382.22357
-17.572557 125.00459 376.30536
-16.985214 124.93242 376.65741
-16.395399 124.60127 377.31027
-15.549565 122.89146 381.2767
-14.984592 122.66893 381.7049
-18.116714 124.48415 376.21225
-17.558426 124.4958 376.27243
-16.953505 124.18962 376.99338
-16.102055 122.61095 380.81888
-15.563206 122.46996 380.96207
-18.132919 124.05914 375.88647
-17.544327 123.98793 376.23956
-16.986252 123.99953 376.30078
-16.099642 121.9589 380.86426
-15.521609 121.88769 381.2135
-18.149214 123.63308 375.56168
-17.530104 123.47913 376.20663
-16.95454 123.25661 376.63867
-16.085663 121.45701 380.83273
-15.519624 121.23655 381.26001
-14.942749 121.16628 381.61032
-18.168045 123.33559 375.08487
-17.54591 123.05309 375.88181
-16.622131 120.94592 380.7359
-15.517608 120.58551 381.30545
-14.940794 120.51517 381.65671
-17.559185 122.47211 375.73666
-16.665649 120.60193 380.13507
-16.057524 120.45325 380.76953
-18.246794 119.91323 380.48111
-17.664181 119.71996 380.97256
-17.571329 121.81361 375.6828
-16.112303 119.95909 380.24573
-15.533262 119.88879 380.59695
-14.967618 119.66924 381.02634
-18.285612 119.66801 379.82797
-17.125513 119.05528 381.01321
-15.008603 119.3243 380.42545
-18.279293 119.06634 379.84775
-16.561394 118.56361 381.04684
-14.966884 118.74294 380.67892
-18.295498 118.64091 379.53088
-17.689417 118.2713 380.36191
-16.547417 118.06173 381.01526
-19.877787 120.58685 373.60257
-18.281488 118.13808 379.49823
-17.171623 117.78181 380.06689
-16.591118 117.71369 380.41528
-16.01174 117.64548 380.76566
-20.339544 119.67236 374.47336
-18.500746 116.1287 383.09579
-18.328333 117.78915 378.89429
-17.714806 117.64462 379.52881
-16.60598 117.28724 380.09943
-20.354801 119.11487 374.29834
-19.033432 115.62261 383.00021
-17.760706 117.29373 378.92468
-17.190239 117.07731 379.35312
-21.322113 118.01758 375.62051
-19.550549 114.84985 383.28592
-18.950907 114.61426 383.95425
-18.33065 116.85699 378.54263
-17.758995 116.64161 378.9711
-21.174984 117.20135 376.74612
-20.119581 114.83041 382.45856
-19.513346 114.18317 383.5824
-18.936991 114.11837 383.923
-18.396448 116.73012 377.56824
-17.727283 115.91299 379.30374
-21.785152 116.83693 376.07782
-21.216885 116.4746 376.58133
-20.148724 114.25964 382.22198
-19.499367 113.68633 383.55011
-18.923134 113.62253 383.89066
-17.760946 115.70837 378.62039
-21.804623 116.40676 375.75385
-21.136253 115.81773 377.12494
-20.156504 113.7253 382.08801
-19.516823 113.26254 383.24036
-21.809626 115.82565 375.67664
-21.155386 115.38747 376.80295
-20.164436 113.19094 381.95407
-19.534004 112.83673 382.9306
-21.833549 115.16925 375.55502
-21.1744 114.95524 376.4809
-20.202341 112.98158 381.28464
-19.551336 112.41093 382.62085
-21.126942 114.37488 376.73633
-20.188425 112.48174 381.25211
-19.600439 112.05542 382.02856
-22.308508 116.49399 369.8981
-21.212759 114.09085 375.83469
-20.270853 112.19661 380.37442
-19.58643 111.55753 381.99719
-17.97263 111.64944 381.90909
-22.909885 115.89169 369.59265
-22.27112 115.74974 370.2449
-21.232197 113.65768 375.51056
-20.256815 111.69578 380.34189
-19.674017 111.63293 380.68646
-17.95853 111.15063 381.87659
-22.335802 113.12925 375.36447
-22.262787 115.15876 370.25217
-21.184191 113.07623 375.76797
-20.294991 111.48277 379.66525
-19.672644 110.9858 380.73212
-19.135288 110.84795 380.87247
-18.523563 110.71373 381.49954
-17.974613 110.72092 381.56464
-22.35619 112.69412 375.03925
-22.231932 114.34129 370.64056
-20.313393 111.05124 379.34921
-19.741522 110.84216 379.77197
-18.509403 110.21384 381.46802
-22.238388 111.96952 375.8764
-19.727453 110.34032 379.73938
-18.495272 109.71403 381.43549
-22.852158 111.59608 375.2067
-22.252485 111.31403 375.82175
-19.102236 109.45319 380.595
-22.873001 111.15991 374.88248
-22.234173 110.66035 375.96799
-19.795477 109.54473 378.82156
-19.110231 108.91379 380.46176
-22.858595 110.65115 374.84851
-21.661816 110.1633 375.99225
-19.748966 108.97252 379.07352
-19.164461 108.91053 379.42108
-18.545713 108.41927 380.49329
-24.351204 114.00977 364.94119
-22.312817 109.98 374.87973
-21.681681 109.7261 375.66891
-20.598185 109.81414 375.49557
-19.766939 108.53806 378.75629
-19.163452 108.26133 379.46869
-18.011597 107.99191 380.24417
-24.390875 113.53795 364.51944
-22.935743 109.84663 373.90448
-21.701576 109.28893 375.34457
-20.411169 108.59418 377.358
-19.836552 108.38589 377.78574
-19.226593 107.74893 378.94608
-18.610807 107.61948 379.57932
-18.028166 107.5574 379.92795
-25.016821 113.30417 363.73248
-24.350895 112.78613 364.87885
-23.169239 110.34959 371.26596
-22.395155 109.4165 373.63312
-19.248779 107.67367 378.18179
-25.014744 112.62694 363.78073
-24.336123 112.26249 364.84213
-23.167498 109.68637 371.31387
-22.438152 109.19473 372.92905
-21.797495 108.69748 374.02966
-21.249825 108.55881 374.16885
-20.06208 108.43575 374.87277
-19.298708 107.30479 377.57587
-18.645262 106.74859 378.94479
-17.999447 106.55266 379.86469
-24.974215 111.87612 364.1402
-24.32126 111.7398 364.80658
-23.130018 108.95428 371.65823
-22.50157 108.89567 372.1795
-21.23539 108.04801 374.13583
-19.939701 107.11555 376.466
-19.5861 108.14184 374.02225
-18.630856 106.24473 378.91312
-18.016016 106.11618 379.54834
-24.989349 111.5281 363.73596
-22.533079 106.117 377.72043
-22.59959 108.37198 371.46472
-21.330942 108.11028 372.76251
-19.9946 106.98495 375.55124
-18.616543 105.74088 378.8804
-18.063595 105.74614 378.94638
-24.995882 111.01492 363.55899
-23.109251 105.67191 377.34311
-22.484035 105.54687 377.97235
-21.350931 107.66742 372.43192
-19.24658 105.68137 377.6615
-18.633722 105.30245 378.56299
-18.049158 105.24226 378.9147
-24.968321 110.37666 363.72079
-23.094906 105.16714 377.30939
-22.46966 105.0431 377.93869
-21.880945 104.98431 378.28339
-21.475018 107.43131 371.21075
-19.255337 105.13618 377.52405
-18.650934 104.86407 378.2446
-24.927944 109.62785 364.08029
-23.080622 104.66236 377.27563
-22.490076 104.60462 377.62036
-21.425545 106.84756 371.47507
-20.86039 106.85542 371.53296
-19.258816 104.84119 377.12427
-18.113976 104.43 377.99115
-24.887964 108.88116 364.43799
-23.066126 104.15858 377.24191
-22.489067 103.95554 377.66589
-21.899862 103.8978 378.01062
-21.4806 106.46972 370.84476
-20.845741 106.34163 371.49878
-19.243067 104.2159 377.24182
-18.685785 103.98438 377.60562
-24.757772 108.14433 365.32544
-23.122948 103.78262 376.6348
-22.488243 103.3074 377.71249
-21.933617 103.31402 377.77151
-21.37896 103.32051 377.83249
-21.465889 105.95497 370.81049
-20.830969 105.82685 371.46555
-24.815817 107.6385 364.83417
-23.108515 103.27682 376.60101
-22.516808 103.22007 376.94675
-20.850622 105.3801 371.13275
-19.312433 103.51644 376.15961
-22.551352 102.63436 376.70654
-21.960226 102.57658 377.05222
-21.370321 102.51869 377.39993
-20.904852 104.99936 370.50128
-24.277655 104.5812 370.04749
-21.473013 102.05986 376.58521
-20.889988 104.4826 370.46692
-17.800409 102.90315 374.53979
-17.209497 102.84369 374.89944
-21.458485 101.55308 376.55139
-17.817499 102.45715 374.21307
-23.121937 101.37965 375.89029
-18.793417 101.67953 375.22043
-23.063555 100.46019 376.59375
-22.401413 100.28065 377.51218
-24.1947 102.30785 370.28931
-23.075607 100.11284 376.21756
-22.422102 99.838272 377.19263
-21.432405 102.47574 369.9722
-19.32259 100.65544 375.09058
-24.180021 101.79318 370.25305
-23.12825 99.776413 375.58124
-22.407421 99.332428 377.15982
-21.451111 101.90432 369.79358
-19.356493 100.06285 374.84811
-18.797289 100.06723 374.9129
-18.238268 100.07159 374.97876
-23.128004 99.125267 375.62772
-22.428143 98.888077 376.83923
-18.863848 99.535339 374.37842
-18.239367 99.415222 375.02896
-22.484417 98.503181 376.23056
-24.204584 100.13654 369.86163
-23.156538 98.375206 374.8999
-22.540813 98.116364 375.6199
-21.439968 100.29635 369.54706
-19.394361 98.508278 374.2475
-18.834333 98.512718 374.31232
-24.186853 99.502113 369.98279
-22.490519 97.548996 375.87497
-21.459101 99.7229 369.36838
-24.209801 99.048347 369.64862
-22.511301 97.100883 375.55313
-21.918404 97.046593 375.90198
-21.47982 99.267265 369.03314
-23.165751 96.880569 374.43893
-21.903542 96.538986 375.86911
-21.500452 98.811646 368.69696
-20.860985 98.693245 369.35941
-17.829025 97.638847 372.40927
-23.148811 96.256081 374.55655
-22.517586 96.143814 375.1954
-21.888647 96.031433 375.83527
-20.881063 98.23661 369.02405
-17.814072 97.124123 372.37598
-23.774668 96.204285 373.42502
-23.13398 95.746933 374.52255
-22.553902 95.550331 374.95483
-21.96656 95.563721 375.18088
-21.45249 95.415634 375.15884
-20.901175 97.77919 368.68781
-23.790016 95.406715 373.55576
-23.19239 95.353683 373.90561
-21.99613 94.902771 375.06412
-21.437658 94.9067 375.12595
-23.214241 94.901253 373.57959
-22.580877 94.79052 374.22247
-21.422794 94.397743 375.09198
-21.404253 96.675156 368.86011
-23.236151 94.447807 373.25351
-22.638372 94.394989 373.60538
-22.040592 94.227547 374.1098
-21.462345 94.145454 374.39447
-21.405441 96.010117 368.91193
-24.587444 94.962173 370.41022
-23.247717 94.089531 372.86981
-22.623417 93.884026 373.57129
-21.481493 95.81604 367.88434
-24.569864 94.331787 370.53055
-23.924109 93.991882 371.48853
-23.365885 94.342209 371.08252
-22.717871 93.542877 372.65698
-22.119541 93.490204 373.01184
-21.486759 93.380775 373.65979
-24.588264 93.643867 370.50845
-23.871466 93.421371 371.74939
-22.739475 93.086754 372.3288
-22.104464 92.978043 372.97775
-21.051426 93.098175 372.51303
-24.496527 93.015945 371.06631
-23.879551 92.831154 371.67282
-22.781864 92.829514 371.62109
-22.161808 92.577812 372.3544
-19.428135 92.840286 371.82602
-24.558172 92.613823 370.43896
-23.346895 92.168022 371.61151
-20.598576 92.297829 371.32376
-20.034122 92.300842 371.38846
-19.435762 92.247726 371.75034
-24.581701 92.154602 370.10559
-23.939304 92.0476 370.75754
-22.946066 94.3424 363.6496
-24.527864 91.583519 370.36844
-23.940432 91.389275 370.8067
-23.355745 91.309029 371.09131
-21.75284 91.51516 370.45016
-21.1514 91.463112 370.81
-20.533846 91.554703 371.08646
-20.073336 91.380234 370.72461
-24.589909 91.178032 369.73795
-23.338959 90.680603 371.2117
-22.280136 93.031555 364.34286
-24.007814 90.665878 369.75931
-23.36145 90.220207 370.88031
-22.119473 89.725571 372.35345
-21.210695 90.738792 369.76047
-20.643707 90.398811 370.29407
-18.411104 90.807251 369.78339
-24.039246 90.131859 369.46841
-23.346281 89.705124 370.84503
-22.707088 89.601097 371.49817
-22.104303 89.212296 372.31927
-24.413673 90.91996 365.41519
-23.29324 89.136658 371.10706
-22.125696 88.751549 371.98984
-21.526636 88.701286 372.3468
-24.398415 90.396873 365.37747
-23.305323 88.577179 370.96588
-22.693443 88.42968 371.51413
-22.110313 88.237595 371.95563
-21.511284 88.18766 372.31262
-24.382727 89.873497 365.34177
-23.396542 88.459694 369.76205
-22.695272 87.773109 371.56442
-22.131643 87.775436 371.62613
-21.532034 87.725754 371.98407
-24.367222 89.350113 365.30612
-23.322563 87.69558 370.40872
-21.589073 87.314529 371.35815
-24.390753 88.880363 364.96332
-23.344904 87.231155 370.07608
-22.759054 87.039909 370.52048
-22.17449 86.848442 370.96396
-21.57366 86.799255 371.32394
-22.233053 86.434547 370.33496
-21.631002 86.38562 370.69489
-21.00284 88.13961 365.15234
-24.724911 86.886993 367.31671
-24.076899 86.78701 367.9769
-17.131367 85.9272 370.89987
-24.670006 86.315514 367.58258
-24.018639 85.880531 368.71606
-23.450523 85.883057 368.77563
-22.882591 85.885391 368.83524
-22.240255 85.78624 369.49658
-21.700827 85.574471 369.68839
-24.671898 85.652878 367.63345
-24.003042 85.362038 368.68063
-23.396839 85.314308 369.03955
-22.299061 85.368622 368.86136
-21.731281 85.035233 369.39731
-17.731157 84.990982 370.16357
-17.099993 84.890976 370.83408
-24.695854 85.183517 367.29465
-24.026327 84.893234 368.34479
-23.381151 84.795937 369.00421
-21.789328 84.95121 368.28668
-17.708817 84.376068 370.32367
-17.0583 83.989372 371.57166
-24.7416 84.904976 366.56693
-24.04958 84.423424 368.009
-23.390368 84.199287 368.92731
-17.713118 83.858223 370.15439
-17.042706 83.472244 371.53827
-24.682178 83.999695 367.31207
-24.073015 83.952942 367.67105
-22.856644 83.52581 368.86847
-17.717453 83.482635 369.7627
-17.059795 83.003387 371.20639
-24.666492 83.479164 367.27557
-24.057238 83.432671 367.63553
-23.449083 83.385864 367.99649
-20.178944 83.589096 367.16281
-19.571918 83.652641 367.37195
-18.302076 83.011566 369.35822
-17.672588 82.692902 370.34546
-17.076855 82.533363 370.87543
-24.080706 82.960548 367.29758
-23.451706 82.723953 368.04855
-22.901352 82.583511 368.1976
-20.163073 83.066322 367.1272
-18.286205 82.491539 369.32373
-17.692575 82.111 370.17133
-24.104172 82.487427 366.95953
-23.494736 82.441124 367.32153
-20.147173 82.543472 367.09253
-18.33882 82.066566 368.68607
-17.703533 81.970764 369.36066
-17.111366 81.590919 370.20938
-24.167068 82.061111 366.31696
-23.517654 81.967491 366.98248
-22.908829 81.921288 367.3465
-20.738388 82.067917 366.68787
-19.560715 82.020912 367.1243
-17.748301 81.450195 368.91754
-23.618576 81.587303 366.03635
-22.969557 81.494041 366.7049
-22.781883 82.643547 362.71762
-21.293715 81.544083 366.5878
-20.1873 81.592346 366.41312
-19.580275 81.545189 366.78418
-17.806683 81.117188 368.08221
-23.641891 81.111061 365.69516
-22.992079 81.018463 366.36472
-22.844019 82.661781 361.39774
-21.314804 81.067635 366.2475
-20.171339 81.068398 366.37741
-19.599836 81.068405 366.44485
-18.456953 81.068062 366.58072
-17.756937 80.548233 368.3512
-16.149759 80.684853 367.65662
-23.665174 80.633858 365.353
-22.892448 81.87468 361.33423
-21.373274 80.636971 365.60071
-20.727062 80.54406 366.27728
-20.155376 80.544167 366.34274
-18.510298 80.637077 365.93277
-17.822216 80.307495 367.31519
-16.166546 80.207344 367.31723
-23.570751 80.017479 365.92737
-22.979441 79.830727 366.38193
-22.370005 79.785545 366.74799
-20.784405 80.112305 365.62943
-19.63908 80.112144 365.76221
-18.487377 80.017097 366.09561
-17.833536 79.735313 367.1734
-16.150431 79.683022 367.28256
-22.982826 79.166275 366.43484
-22.373421 79.121361 366.80093
-21.72773 79.031334 367.47165
-19.664225 79.301773 365.90747
-18.520182 79.300476 366.04327
-17.844978 79.162727 367.03168
-16.167061 79.204002 366.94312
-23.538584 78.970284 365.85504
-22.966803 78.643303 366.3992
-22.357367 78.598679 366.76529
-21.711615 78.509354 367.43607
-21.142065 78.509125 367.5015
-17.863228 78.683632 366.69122
-16.721565 78.680634 366.83603
-23.541939 78.305389 365.90884
-22.950811 78.120232 366.36356
-22.341314 78.075928 366.72968
-21.125982 77.986961 367.46585
-18.487831 78.249306 365.97473
-17.881384 78.203423 366.3508
-16.705389 78.155563 366.80228
-15.089882 78.284279 366.10309
-24.237925 78.099449 364.49866
-23.663706 78.09993 364.55902
-22.934727 77.597008 366.32687
-22.32523 77.55304 366.69403
-21.716984 77.508926 367.06213
-20.576725 77.507683 367.19296
-17.865177 77.678047 366.31708
-16.184393 77.717155 366.22739
-15.041816 77.713036 366.37701
-24.221687 77.573769 364.46286
-23.568579 77.486267 365.13556
-22.95731 77.117119 365.98654
-22.347292 77.073433 366.35464
-21.758577 76.888878 366.81238
-21.188173 76.888039 366.87778
-20.6178 76.887169 366.94318
-17.848942 77.152641 366.28229
-16.23435 77.278847 365.577
-15.66184 77.276711 365.65131
-15.025395 77.186478 366.34317
-24.165289 76.896164 364.89465
-23.572147 76.820358 365.18942
-22.999088 76.820313 365.25076
-22.369328 76.592751 366.01422
-17.867191 76.67038 365.94077
-16.251347 76.795158 365.23438
-15.645635 76.749367 365.61749
-15.009037 76.659752 366.31039
-24.215702 76.334549 364.5087
-23.536257 76.112198 365.54797
-22.391512 76.111351 365.67279
-21.781343 76.068008 366.0419
-21.172455 76.024483 366.41208
-17.850832 76.144279 365.90591
-16.201693 76.224113 365.50928
-15.629246 76.221802 365.58359
-14.992647 76.13298 366.27658
-23.559542 75.629982 365.20554
-21.803101 75.58577 365.70041
-21.25177 75.443893 365.85638
-20.6745 75.381851 366.05487
-17.903933 75.703194 365.25549
-16.758059 75.698997 365.40012
-16.185427 75.696594 365.47443
-15.584413 75.542671 366.02155
-24.236818 75.338814 364.02615
-23.543304 75.105087 365.16879
-21.862823 75.144478 365.05206
-17.922152 75.218048 364.91177
-17.314423 75.173706 365.29288
-16.741638 75.171448 365.36624
-16.169006 75.168922 365.44055
-15.576537 74.79863 366.31375
-23.645935 74.704132 364.21268
-22.953947 74.579094 365.1954
-21.846495 74.618515 365.01627
-21.235624 74.575836 365.38846
-20.663084 74.574532 365.45477
-17.905884 74.690262 364.87689
-17.298002 74.646286 365.25809
-16.152525 74.641197 365.4057
-15.579987 74.638466 365.4809
-23.629669 74.177513 364.17584
-22.937557 74.053734 365.15961
-21.294556 74.132141 364.73801
-20.720947 74.130737 364.80432
-17.937042 74.387054 364.13074
-17.35025 74.201317 364.60544
-16.776398 74.198784 364.67871
-16.192226 74.013115 365.15344
-21.353819 73.686829 364.08545
-18.566315 73.942299 363.40372
-17.939512 73.824272 364.02332
-17.333708 73.672729 364.57047
-16.759947 73.670074 364.64377
-16.198696 73.343376 365.21118
-23.596706 73.124062 364.10217
-19.83423 73.396996 362.38715
-18.57202 73.270706 363.46033
