0.96318964 -0.06829205 10.82332703 0.00000000 0.00000000 0.00000000
0.94313554 0.21432047 10.42344009 0.00000000 0.00000000 0.00000000
0.48900880 0.16713643 10.31070872 0.00000000 0.00000000 0.00000000
-0.82216558 0.38210925 10.36625785 0.00000000 0.00000000 0.00000000
0.11720145 0.08671029 10.76111717 0.00000000 0.00000000 0.00000000
-0.73621294 -0.41208890 10.67516678 0.00000000 0.00000000 0.00000000
-0.40659062 0.32251568 10.85292830 0.00000000 0.00000000 0.00000000
-0.19815125 0.39618036 10.66826164 0.00000000 0.00000000 0.00000000
0.13982611 -0.17378370 10.72841352 0.00000000 0.00000000 0.00000000
0.28030146 0.22330453 10.88279327 0.00000000 0.00000000 0.00000000
0.47092270 -0.42829325 10.86910113 0.00000000 0.00000000 0.00000000
0.76233873 0.14628154 10.32749723 0.00000000 0.00000000 0.00000000
-0.57839445 -0.12173965 10.84354465 0.00000000 0.00000000 0.00000000
-0.29277468 0.46472509 10.76193411 0.00000000 0.00000000 0.00000000
0.88481150 0.06296918 10.83108078 0.00000000 0.00000000 0.00000000
0.58098361 0.07081532 10.94868583 0.00000000 0.00000000 0.00000000
0.35856800 0.02632046 10.31806699 0.00000000 0.00000000 0.00000000
0.67120160 -0.01247597 10.47023095 0.00000000 0.00000000 0.00000000
0.16492144 -0.23803143 10.91413809 0.00000000 0.00000000 0.00000000
0.55371349 -0.06049843 10.40265250 0.00000000 0.00000000 0.00000000
-0.08523741 -0.02376836 10.85590206 0.00000000 0.00000000 0.00000000
-0.14530140 -0.41309974 10.87798167 0.00000000 0.00000000 0.00000000
-0.06295300 0.39209908 10.61721557 0.00000000 0.00000000 0.00000000
0.75182705 0.16884117 10.26541475 0.00000000 0.00000000 0.00000000
0.97245075 -0.01309934 10.77240840 0.00000000 0.00000000 0.00000000
-0.31650050 -0.32667099 10.16926274 0.00000000 0.00000000 0.00000000
-0.66801053 -0.34147177 10.39215266 0.00000000 0.00000000 0.00000000
0.14757304 0.33340262 10.06442090 0.00000000 0.00000000 0.00000000
0.79395981 0.37523734 10.52057956 0.00000000 0.00000000 0.00000000
-0.42416367 0.22511674 10.95784867 0.00000000 0.00000000 0.00000000
0.36921388 0.14504946 10.69733242 0.00000000 0.00000000 0.00000000
-0.51832516 -0.16415489 10.49334634 0.00000000 0.00000000 0.00000000
0.66933956 -0.14056455 10.44310049 0.00000000 0.00000000 0.00000000
-0.22556441 -0.39533106 10.78176097 0.00000000 0.00000000 0.00000000
0.79571284 0.29714578 10.75297155 0.00000000 0.00000000 0.00000000
0.25655203 0.18516255 10.92608351 0.00000000 0.00000000 0.00000000
0.28148827 -0.10013907 10.25788288 0.00000000 0.00000000 0.00000000
0.92797529 -0.04037096 10.35133273 0.00000000 0.00000000 0.00000000
-0.97998480 -0.10424018 10.30175721 0.00000000 0.00000000 0.00000000
-0.76397574 0.31843645 10.50842738 0.00000000 0.00000000 0.00000000
0.15816669 0.16195720 10.66760669 0.00000000 0.00000000 0.00000000
0.85671527 -0.11782837 10.39980390 0.00000000 0.00000000 0.00000000
-0.45847110 0.42519613 10.48544654 0.00000000 0.00000000 0.00000000
-0.67591979 0.29027453 10.14152173 0.00000000 0.00000000 0.00000000
-0.80892264 -0.24407187 10.48720314 0.00000000 0.00000000 0.00000000
-0.10343239 0.10637690 10.10337650 0.00000000 0.00000000 0.00000000
-0.68845836 -0.12554793 10.95645648 0.00000000 0.00000000 0.00000000
-0.19498905 -0.01635849 10.34256437 0.00000000 0.00000000 0.00000000
0.79480942 -0.02339256 10.88890029 0.00000000 0.00000000 0.00000000
-0.90182221 0.06122092 10.13622051 0.00000000 0.00000000 0.00000000
-0.20702664 0.00746908 10.32461975 0.00000000 0.00000000 0.00000000
-0.63942683 -0.29593965 10.53039242 0.00000000 0.00000000 0.00000000
0.08859601 -0.08686267 10.50583254 0.00000000 0.00000000 0.00000000
-0.48702609 0.02780485 10.12759706 0.00000000 0.00000000 0.00000000
-0.88287252 -0.04085277 10.86139143 0.00000000 0.00000000 0.00000000
-0.34575669 0.27406241 10.85380148 0.00000000 0.00000000 0.00000000
-0.35011601 0.30403763 10.65877970 0.00000000 0.00000000 0.00000000
-0.56933495 0.36088674 10.06926432 0.00000000 0.00000000 0.00000000
-0.07685648 0.29516947 10.10601222 0.00000000 0.00000000 0.00000000
-0.17481656 0.47210998 10.40349595 0.00000000 0.00000000 0.00000000
0.22558377 0.17748292 10.00343793 0.00000000 0.00000000 0.00000000
-0.49763696 -0.11982795 10.12467571 0.00000000 0.00000000 0.00000000
-0.29200664 -0.03680751 10.83831592 0.00000000 0.00000000 0.00000000
-0.76344185 -0.00870144 10.31846256 0.00000000 0.00000000 0.00000000
-0.23606657 0.26911048 10.77811654 0.00000000 0.00000000 0.00000000
0.15746815 0.21207109 10.23025850 0.00000000 0.00000000 0.00000000
-0.09170964 0.17329848 10.14169125 0.00000000 0.00000000 0.00000000
0.36509026 -0.05254183 10.31693874 0.00000000 0.00000000 0.00000000
-0.35185284 0.04252629 10.86622203 0.00000000 0.00000000 0.00000000
0.35303219 -0.30499982 10.32755217 0.00000000 0.00000000 0.00000000
0.04824330 0.09954282 10.18118738 0.00000000 0.00000000 0.00000000
0.23837813 0.04856047 10.41222419 0.00000000 0.00000000 0.00000000
-0.12853790 -0.43700976 10.96386736 0.00000000 0.00000000 0.00000000
0.54541154 0.08194453 10.62895806 0.00000000 0.00000000 0.00000000
0.22921097 -0.25967239 10.78320916 0.00000000 0.00000000 0.00000000
0.50992667 -0.39258394 10.20026042 0.00000000 0.00000000 0.00000000
0.31739249 -0.05274945 10.04704339 0.00000000 0.00000000 0.00000000
-0.04214512 0.49094998 10.12112443 0.00000000 0.00000000 0.00000000
-0.88613970 0.27257074 10.55940988 0.00000000 0.00000000 0.00000000
0.01121051 -0.09056010 10.41165431 0.00000000 0.00000000 0.00000000
-0.60232594 -0.10079938 10.84692161 0.00000000 0.00000000 0.00000000
-0.35699299 -0.07157994 10.76361786 0.00000000 0.00000000 0.00000000
0.73490567 -0.05791004 10.44714492 0.00000000 0.00000000 0.00000000
-0.94184850 0.22055113 10.07970799 0.00000000 0.00000000 0.00000000
-0.45860110 0.31921237 10.15997151 0.00000000 0.00000000 0.00000000
-0.90084627 0.18819591 10.51399046 0.00000000 0.00000000 0.00000000
-0.43845026 0.31527846 10.82789430 0.00000000 0.00000000 0.00000000
0.51084870 -0.25798758 10.48593296 0.00000000 0.00000000 0.00000000
0.76289632 0.24033000 10.53936239 0.00000000 0.00000000 0.00000000
-0.06874542 0.03221148 10.44046179 0.00000000 0.00000000 0.00000000
-0.92995464 0.26759266 10.86476383 0.00000000 0.00000000 0.00000000
-0.29488295 0.32419396 10.39500012 0.00000000 0.00000000 0.00000000
-0.17454655 -0.39418479 10.48147802 0.00000000 0.00000000 0.00000000
-0.40424967 0.14172504 10.07431047 0.00000000 0.00000000 0.00000000
-0.59116989 0.08160703 10.56331173 0.00000000 0.00000000 0.00000000
-0.16628420 0.19590560 10.71517850 0.00000000 0.00000000 0.00000000
-0.13282310 -0.47266420 10.30212889 0.00000000 0.00000000 0.00000000
0.93883613 0.14107809 10.24646137 0.00000000 0.00000000 0.00000000
-0.13079284 -0.25711499 10.68543037 0.00000000 0.00000000 0.00000000
-0.16274742 -0.33720675 10.33118095 0.00000000 0.00000000 0.00000000
-0.62749148 -0.00454965 10.07203848 0.00000000 0.00000000 0.00000000
-0.97821773 -0.04104751 10.47374810 0.00000000 0.00000000 0.00000000
0.73353168 -0.32936755 10.51960090 0.00000000 0.00000000 0.00000000
0.15793714 -0.27031332 10.31673458 0.00000000 0.00000000 0.00000000
0.72806042 0.23484514 10.47882812 0.00000000 0.00000000 0.00000000
-0.36585187 -0.34089579 10.14525737 0.00000000 0.00000000 0.00000000
0.12545736 -0.38482370 10.80074490 0.00000000 0.00000000 0.00000000
-0.11684694 0.37103839 10.25185441 0.00000000 0.00000000 0.00000000
0.56397773 -0.29856994 10.45177108 0.00000000 0.00000000 0.00000000
-0.58488094 -0.16508205 10.93750566 0.00000000 0.00000000 0.00000000
0.88275991 0.26171568 10.32881794 0.00000000 0.00000000 0.00000000
-0.08490420 -0.19167993 10.79873063 0.00000000 0.00000000 0.00000000
-0.01752205 -0.47634131 10.90618730 0.00000000 0.00000000 0.00000000
-0.99271712 -0.25602151 10.66657922 0.00000000 0.00000000 0.00000000
-0.49018450 0.10475471 10.52748924 0.00000000 0.00000000 0.00000000
-0.12960237 0.14740382 10.86467045 0.00000000 0.00000000 0.00000000
-0.26632611 -0.21488783 10.92700643 0.00000000 0.00000000 0.00000000
-0.70332752 0.18976853 10.36875648 0.00000000 0.00000000 0.00000000
0.87490989 0.01180133 10.74881252 0.00000000 0.00000000 0.00000000
-0.94804331 -0.17507662 10.96130333 0.00000000 0.00000000 0.00000000
0.45088348 -0.30326647 10.01292699 0.00000000 0.00000000 0.00000000
0.36183039 -0.29593152 10.57420188 0.00000000 0.00000000 0.00000000
0.48001345 0.33222778 10.86655044 0.00000000 0.00000000 0.00000000
0.67075600 0.40943777 10.96508522 0.00000000 0.00000000 0.00000000
-0.19728627 0.07912499 10.33102189 0.00000000 0.00000000 0.00000000
-0.31040042 0.47965761 10.47712755 0.00000000 0.00000000 0.00000000
-0.45988125 0.12509338 10.36082421 0.00000000 0.00000000 0.00000000
-0.89631905 0.33906800 10.27826349 0.00000000 0.00000000 0.00000000
0.33823767 -0.14500673 10.79382784 0.00000000 0.00000000 0.00000000
-0.86681877 0.23108591 10.03670879 0.00000000 0.00000000 0.00000000
-0.57770771 -0.09054969 10.05295529 0.00000000 0.00000000 0.00000000
0.66048431 0.33262034 10.82511825 0.00000000 0.00000000 0.00000000
0.84735103 -0.21265319 10.74439470 0.00000000 0.00000000 0.00000000
0.38079210 0.38253169 10.69347188 0.00000000 0.00000000 0.00000000
-0.00109726 -0.39329677 10.82444809 0.00000000 0.00000000 0.00000000
0.13914395 -0.06949139 10.39955481 0.00000000 0.00000000 0.00000000
-0.97697305 -0.19335425 10.98647032 0.00000000 0.00000000 0.00000000
-0.78198159 0.36276475 10.29951083 0.00000000 0.00000000 0.00000000
0.06279236 -0.21936255 10.75926565 0.00000000 0.00000000 0.00000000
0.56204926 -0.14062156 10.23902229 0.00000000 0.00000000 0.00000000
-0.19741010 0.40121728 10.35470199 0.00000000 0.00000000 0.00000000
0.12247938 -0.04987089 10.57589749 0.00000000 0.00000000 0.00000000
0.62230734 -0.29964915 10.74986758 0.00000000 0.00000000 0.00000000
0.82141682 -0.19183370 10.82292739 0.00000000 0.00000000 0.00000000
-0.25414167 0.25368418 10.95143111 0.00000000 0.00000000 0.00000000
-0.10024796 0.03826873 10.41942747 0.00000000 0.00000000 0.00000000
-0.29587489 -0.25511369 10.38730689 0.00000000 0.00000000 0.00000000
0.70405318 0.36048755 10.15947795 0.00000000 0.00000000 0.00000000
0.09437631 0.12711432 10.34432472 0.00000000 0.00000000 0.00000000
0.81717547 -0.38253735 10.92605817 0.00000000 0.00000000 0.00000000
-0.38099943 0.14659688 10.61979430 0.00000000 0.00000000 0.00000000
0.63805708 -0.13793746 10.82514388 0.00000000 0.00000000 0.00000000
0.95663611 0.03298290 10.26682780 0.00000000 0.00000000 0.00000000
-0.52556165 -0.42986462 10.85974626 0.00000000 0.00000000 0.00000000
0.61405921 0.11152404 10.75292963 0.00000000 0.00000000 0.00000000
0.30789828 0.32118945 10.22159399 0.00000000 0.00000000 0.00000000
0.89233974 0.16777552 10.20062339 0.00000000 0.00000000 0.00000000
-0.79023128 -0.12395446 10.36355616 0.00000000 0.00000000 0.00000000
-0.28224507 -0.21709154 10.13376435 0.00000000 0.00000000 0.00000000
0.23780641 0.46233754 10.64418399 0.00000000 0.00000000 0.00000000
0.66788006 0.09820270 10.41278847 0.00000000 0.00000000 0.00000000
0.68456799 -0.13177531 10.31925238 0.00000000 0.00000000 0.00000000
0.36464439 0.14543358 10.33674287 0.00000000 0.00000000 0.00000000
-0.33988226 0.34019638 10.81885735 0.00000000 0.00000000 0.00000000
-0.36240919 -0.14130948 10.98050086 0.00000000 0.00000000 0.00000000
0.40694312 -0.46061709 10.29833737 0.00000000 0.00000000 0.00000000
-0.63618128 0.18639022 10.00068629 0.00000000 0.00000000 0.00000000
0.52310176 -0.39863616 10.29818983 0.00000000 0.00000000 0.00000000
-0.99853552 -0.29708462 10.88573670 0.00000000 0.00000000 0.00000000
0.94119266 0.10491683 10.90742485 0.00000000 0.00000000 0.00000000
0.16986046 0.16889017 10.03376004 0.00000000 0.00000000 0.00000000
-0.44211662 0.19027693 10.13170469 0.00000000 0.00000000 0.00000000
-0.00024900 -0.01370352 10.78076356 0.00000000 0.00000000 0.00000000
0.49468327 -0.15025318 10.27339232 0.00000000 0.00000000 0.00000000
0.29905794 -0.43674810 10.34797886 0.00000000 0.00000000 0.00000000
-0.27629762 0.06122556 10.90969031 0.00000000 0.00000000 0.00000000
0.47350588 -0.40239620 10.09423309 0.00000000 0.00000000 0.00000000
-0.46313568 0.27799621 10.86090057 0.00000000 0.00000000 0.00000000
-0.52909269 -0.09689984 10.80421188 0.00000000 0.00000000 0.00000000
-0.96307706 -0.21443849 10.96276110 0.00000000 0.00000000 0.00000000
-0.95762575 -0.18217583 10.88990062 0.00000000 0.00000000 0.00000000
0.22936672 -0.38905555 10.20011596 0.00000000 0.00000000 0.00000000
-0.84855257 -0.38724855 10.09088032 0.00000000 0.00000000 0.00000000
0.60644955 0.26626644 10.55131758 0.00000000 0.00000000 0.00000000
-0.17772299 -0.14838238 10.04045853 0.00000000 0.00000000 0.00000000
0.25351891 0.29955125 10.38466641 0.00000000 0.00000000 0.00000000
0.53427132 -0.21865204 10.04775812 0.00000000 0.00000000 0.00000000
0.10683422 0.35193297 10.24125314 0.00000000 0.00000000 0.00000000
-0.39117121 0.31974400 10.24399157 0.00000000 0.00000000 0.00000000
0.69561716 0.30985408 10.30544497 0.00000000 0.00000000 0.00000000
0.96928388 0.19103190 10.96151957 0.00000000 0.00000000 0.00000000
0.14407184 -0.45198690 10.92788165 0.00000000 0.00000000 0.00000000
0.67580651 -0.22274618 10.03732999 0.00000000 0.00000000 0.00000000
-0.66456656 -0.10981735 10.28825145 0.00000000 0.00000000 0.00000000
-0.69315901 -0.18088179 10.75529027 0.00000000 0.00000000 0.00000000
-0.43226304 0.03428877 10.97926951 0.00000000 0.00000000 0.00000000
-0.21937058 -0.08564746 10.47483068 0.00000000 0.00000000 0.00000000
-0.49259297 0.24591775 10.15581076 0.00000000 0.00000000 0.00000000
0.56497208 0.42248252 10.92992457 0.00000000 0.00000000 0.00000000
-0.99777988 -0.29336956 10.72454222 0.00000000 0.00000000 0.00000000
-0.02785826 -0.37099097 10.27481603 0.00000000 0.00000000 0.00000000
0.52009266 -0.43194665 10.91630182 0.00000000 0.00000000 0.00000000
0.34634963 0.17130600 10.75275575 0.00000000 0.00000000 0.00000000
-0.96709054 -0.31350596 10.59789299 0.00000000 0.00000000 0.00000000
-0.27897904 -0.47846975 10.92900564 0.00000000 0.00000000 0.00000000
0.04593878 0.39404843 10.68363733 0.00000000 0.00000000 0.00000000
-0.50582966 -0.43272254 10.66491036 0.00000000 0.00000000 0.00000000
-0.17913191 0.07280040 10.15408963 0.00000000 0.00000000 0.00000000
0.44522348 0.22637615 10.55158586 0.00000000 0.00000000 0.00000000
-0.82561361 0.00219263 10.27276495 0.00000000 0.00000000 0.00000000
0.21330924 -0.40021670 10.27016487 0.00000000 0.00000000 0.00000000
-0.82265111 -0.12578990 10.95350495 0.00000000 0.00000000 0.00000000
-0.14006331 0.12785678 10.87133959 0.00000000 0.00000000 0.00000000
-0.11289262 -0.17049813 10.07010661 0.00000000 0.00000000 0.00000000
0.88676957 -0.37409431 10.06035149 0.00000000 0.00000000 0.00000000
0.04218816 0.24514099 10.66917515 0.00000000 0.00000000 0.00000000
-0.43364350 -0.23980209 10.59329321 0.00000000 0.00000000 0.00000000
0.86723892 0.32332630 10.25440948 0.00000000 0.00000000 0.00000000
-0.11540686 -0.18028480 10.41689394 0.00000000 0.00000000 0.00000000
0.80487041 0.01026378 10.64780646 0.00000000 0.00000000 0.00000000
0.34823506 -0.01449312 10.48236603 0.00000000 0.00000000 0.00000000
0.33409440 -0.11133040 10.69584714 0.00000000 0.00000000 0.00000000
0.34084938 0.44895834 10.34841360 0.00000000 0.00000000 0.00000000
-0.97351910 0.30447968 10.50172769 0.00000000 0.00000000 0.00000000
0.12627936 -0.39914648 10.70366763 0.00000000 0.00000000 0.00000000
-0.04114872 0.47646972 10.16302035 0.00000000 0.00000000 0.00000000
-0.85196617 0.10722316 10.79224777 0.00000000 0.00000000 0.00000000
0.20386023 -0.15486876 10.33920731 0.00000000 0.00000000 0.00000000
-0.88265243 0.09424814 10.86721332 0.00000000 0.00000000 0.00000000
0.73200973 -0.23154083 10.79840350 0.00000000 0.00000000 0.00000000
0.28487470 0.25675764 10.21762304 0.00000000 0.00000000 0.00000000
0.85249819 0.13474274 10.66403468 0.00000000 0.00000000 0.00000000
0.42167806 0.00855576 10.90242622 0.00000000 0.00000000 0.00000000
-0.97386156 -0.35025814 10.49763913 0.00000000 0.00000000 0.00000000
-0.93132369 -0.07916306 10.52211394 0.00000000 0.00000000 0.00000000
0.50910902 -0.38454766 10.31608190 0.00000000 0.00000000 0.00000000
0.65514426 0.08434584 10.76459010 0.00000000 0.00000000 0.00000000
-0.95734377 0.03182358 10.26341721 0.00000000 0.00000000 0.00000000
-0.96753759 -0.06050712 10.60530370 0.00000000 0.00000000 0.00000000
-0.29860796 -0.06464491 10.48243152 0.00000000 0.00000000 0.00000000
0.03106998 -0.34687017 10.47109117 0.00000000 0.00000000 0.00000000
0.35363242 -0.15241935 10.86386180 0.00000000 0.00000000 0.00000000
0.42001879 -0.09352815 10.24742420 0.00000000 0.00000000 0.00000000
0.90453818 0.37179252 10.60467417 0.00000000 0.00000000 0.00000000
-0.53405931 -0.44281962 10.76264121 0.00000000 0.00000000 0.00000000
0.84599975 -0.01814036 10.14547728 0.00000000 0.00000000 0.00000000
-0.24048432 -0.37184273 10.28316434 0.00000000 0.00000000 0.00000000
0.56970917 -0.16727715 10.36073138 0.00000000 0.00000000 0.00000000
0.66578902 -0.09146085 10.59983411 0.00000000 0.00000000 0.00000000
-0.41139537 -0.35689030 10.73174506 0.00000000 0.00000000 0.00000000
0.40167449 0.04156784 10.00212995 0.00000000 0.00000000 0.00000000
-0.10665920 0.18416448 10.22782779 0.00000000 0.00000000 0.00000000
-0.73873087 -0.20656597 10.51032143 0.00000000 0.00000000 0.00000000
0.91468028 0.13778849 10.57592701 0.00000000 0.00000000 0.00000000
-0.67414724 0.38228202 10.74545503 0.00000000 0.00000000 0.00000000
0.42765665 -0.08782504 10.65686617 0.00000000 0.00000000 0.00000000
-0.86603125 0.22990591 10.79488217 0.00000000 0.00000000 0.00000000
0.97334136 -0.00254619 10.97079996 0.00000000 0.00000000 0.00000000
0.57498295 -0.07142342 10.84242561 0.00000000 0.00000000 0.00000000
0.22719598 0.23285040 10.23540915 0.00000000 0.00000000 0.00000000
-0.23484163 -0.23460250 10.41430498 0.00000000 0.00000000 0.00000000
0.01520065 -0.17065675 10.30222278 0.00000000 0.00000000 0.00000000
-0.57614842 -0.11590470 10.66419215 0.00000000 0.00000000 0.00000000
0.08846395 0.47139638 10.43186337 0.00000000 0.00000000 0.00000000
0.47363210 -0.32860028 10.09200327 0.00000000 0.00000000 0.00000000
-0.51513529 0.04166811 10.76011071 0.00000000 0.00000000 0.00000000
0.54584731 0.07533666 10.80517372 0.00000000 0.00000000 0.00000000
0.48366376 -0.44918460 10.55350078 0.00000000 0.00000000 0.00000000
0.49237669 0.13807466 10.89726403 0.00000000 0.00000000 0.00000000
0.70289683 -0.38714660 10.07723579 0.00000000 0.00000000 0.00000000
0.41713075 0.13783110 10.71423375 0.00000000 0.00000000 0.00000000
0.82158452 -0.10405661 10.78185158 0.00000000 0.00000000 0.00000000
-0.96573471 -0.14383541 10.67256531 0.00000000 0.00000000 0.00000000
0.82026413 0.07072268 10.12132367 0.00000000 0.00000000 0.00000000
0.23433706 -0.10859262 10.70684543 0.00000000 0.00000000 0.00000000
0.44997970 -0.11760548 10.97918329 0.00000000 0.00000000 0.00000000
0.38964996 -0.30519347 10.07048865 0.00000000 0.00000000 0.00000000
-0.62670600 0.35329556 10.02207523 0.00000000 0.00000000 0.00000000
0.02249649 -0.27748005 10.84690875 0.00000000 0.00000000 0.00000000
-0.84556061 0.20323142 10.42657385 0.00000000 0.00000000 0.00000000
0.51385895 0.37027467 10.15592478 0.00000000 0.00000000 0.00000000
0.99648691 0.20165105 10.35762795 0.00000000 0.00000000 0.00000000
0.66417813 -0.02575357 10.60970400 0.00000000 0.00000000 0.00000000
-0.33144866 -0.31750990 10.15826620 0.00000000 0.00000000 0.00000000
-0.10061778 0.41934409 10.41392349 0.00000000 0.00000000 0.00000000
-0.25341301 0.07000355 10.17735982 0.00000000 0.00000000 0.00000000
0.49089040 0.33578421 10.46225509 0.00000000 0.00000000 0.00000000
-0.50642111 0.16023735 10.72862906 0.00000000 0.00000000 0.00000000
0.70948034 -0.34471054 10.11714365 0.00000000 0.00000000 0.00000000
-0.25381255 0.00221425 10.35923401 0.00000000 0.00000000 0.00000000
0.71970797 0.30156038 10.01133221 0.00000000 0.00000000 0.00000000
-0.74724813 -0.18350439 10.51959727 0.00000000 0.00000000 0.00000000
-0.27291733 0.48446493 10.46526431 0.00000000 0.00000000 0.00000000
0.78539859 0.28846516 10.77958729 0.00000000 0.00000000 0.00000000
-0.41605924 0.13798451 10.83547099 0.00000000 0.00000000 0.00000000
-0.88155335 -0.37061880 10.81297846 0.00000000 0.00000000 0.00000000
-0.65418434 0.16854607 10.16988753 0.00000000 0.00000000 0.00000000
-0.01025106 -0.23242151 10.63408267 0.00000000 0.00000000 0.00000000
0.90723807 -0.25120084 10.73815309 0.00000000 0.00000000 0.00000000
-0.22950368 0.47077865 10.45798641 0.00000000 0.00000000 0.00000000
-0.81026443 0.29108731 10.97556666 0.00000000 0.00000000 0.00000000
-0.67811581 -0.24063356 10.71594248 0.00000000 0.00000000 0.00000000
-0.81312151 0.29612226 10.18367639 0.00000000 0.00000000 0.00000000
-0.41866029 0.41773554 10.57686503 0.00000000 0.00000000 0.00000000
-0.98594873 -0.22725687 10.70144801 0.00000000 0.00000000 0.00000000
0.89272088 -0.27066279 10.33399030 0.00000000 0.00000000 0.00000000
-0.68092305 -0.33432222 10.34385015 0.00000000 0.00000000 0.00000000
0.78013846 -0.16495641 10.06555008 0.00000000 0.00000000 0.00000000
-0.25494639 0.44599921 10.44173767 0.00000000 0.00000000 0.00000000
0.42611837 0.01070419 10.33042339 0.00000000 0.00000000 0.00000000
-0.82306656 0.12465630 10.25458662 0.00000000 0.00000000 0.00000000
0.90784144 -0.31993455 10.51548927 0.00000000 0.00000000 0.00000000
-0.89739062 0.13617172 10.51938325 0.00000000 0.00000000 0.00000000
0.47496850 0.07798675 10.65196142 0.00000000 0.00000000 0.00000000
0.31896721 0.21083372 10.57193174 0.00000000 0.00000000 0.00000000
0.63825143 -0.24893170 10.05327568 0.00000000 0.00000000 0.00000000
-0.07428496 0.40568355 10.56271315 0.00000000 0.00000000 0.00000000
0.49299602 -0.14706431 10.62788586 0.00000000 0.00000000 0.00000000
-0.32013939 -0.26910653 10.55035127 0.00000000 0.00000000 0.00000000
0.80536793 0.21172083 10.90058330 0.00000000 0.00000000 0.00000000
-0.92928338 0.33245583 10.04122912 0.00000000 0.00000000 0.00000000
-0.57385327 -0.11521958 10.28194347 0.00000000 0.00000000 0.00000000
0.35846537 -0.28933582 10.57933668 0.00000000 0.00000000 0.00000000
0.29637637 0.23442359 10.76549578 0.00000000 0.00000000 0.00000000
0.59477702 -0.04170823 10.48735024 0.00000000 0.00000000 0.00000000
-0.09961752 -0.02796616 10.30764599 0.00000000 0.00000000 0.00000000
0.54063422 0.39664811 10.81126655 0.00000000 0.00000000 0.00000000
0.99897452 -0.31016897 10.14554869 0.00000000 0.00000000 0.00000000
0.44009413 -0.06137404 10.99056112 0.00000000 0.00000000 0.00000000
0.08365457 0.09587105 10.70975309 0.00000000 0.00000000 0.00000000
-0.01977297 0.10424042 10.27765055 0.00000000 0.00000000 0.00000000
0.85449138 0.05687623 10.54313017 0.00000000 0.00000000 0.00000000
0.06796425 -0.41524759 10.24657001 0.00000000 0.00000000 0.00000000
-0.42070533 0.04068635 10.88981515 0.00000000 0.00000000 0.00000000
-0.02815236 -0.42562784 10.43694520 0.00000000 0.00000000 0.00000000
0.54043175 0.44581531 10.64418881 0.00000000 0.00000000 0.00000000
0.63687434 -0.34823552 10.67149896 0.00000000 0.00000000 0.00000000
-0.47724410 0.24373229 10.41362327 0.00000000 0.00000000 0.00000000
0.52528739 -0.06900560 10.59136860 0.00000000 0.00000000 0.00000000
-0.69505755 0.37488676 10.31492495 0.00000000 0.00000000 0.00000000
-0.84267513 -0.24921458 10.78711445 0.00000000 0.00000000 0.00000000
0.19268651 -0.27090694 10.13012630 0.00000000 0.00000000 0.00000000
0.73807208 0.36443914 10.99478722 0.00000000 0.00000000 0.00000000
0.12964085 -0.42877970 10.35018025 0.00000000 0.00000000 0.00000000
-0.24367890 -0.21952356 10.15384124 0.00000000 0.00000000 0.00000000
-0.66453829 -0.29264812 10.45613485 0.00000000 0.00000000 0.00000000
0.93983766 -0.11284951 10.03336337 0.00000000 0.00000000 0.00000000
-0.36887214 0.04516479 10.15835214 0.00000000 0.00000000 0.00000000
0.46143129 -0.37581759 10.87905435 0.00000000 0.00000000 0.00000000
0.86908442 -0.24678922 10.17511782 0.00000000 0.00000000 0.00000000
-0.28684092 -0.38934968 10.60307133 0.00000000 0.00000000 0.00000000
-0.75409931 -0.20994185 10.77065836 0.00000000 0.00000000 0.00000000
0.33223428 -0.18746978 10.71005876 0.00000000 0.00000000 0.00000000
-0.44605998 0.35894521 10.52889731 0.00000000 0.00000000 0.00000000
-0.96630582 0.12747441 10.18534343 0.00000000 0.00000000 0.00000000
0.80635277 0.24843301 10.39960792 0.00000000 0.00000000 0.00000000
0.94024712 -0.18174576 10.26811605 0.00000000 0.00000000 0.00000000
-0.17001728 0.43613722 10.57624492 0.00000000 0.00000000 0.00000000
-0.63827700 0.05744663 10.40685995 0.00000000 0.00000000 0.00000000
0.08271155 0.08954214 10.89756071 0.00000000 0.00000000 0.00000000
0.11121326 -0.28434577 10.65181855 0.00000000 0.00000000 0.00000000
-0.94088965 -0.09293381 10.84701129 0.00000000 0.00000000 0.00000000
0.33411317 -0.31128856 10.62502875 0.00000000 0.00000000 0.00000000
-0.32279543 -0.10812141 10.42308706 0.00000000 0.00000000 0.00000000
0.31547620 0.17278449 10.89922065 0.00000000 0.00000000 0.00000000
-0.29448814 0.24551413 10.54288677 0.00000000 0.00000000 0.00000000
0.80938133 0.14561147 10.13894968 0.00000000 0.00000000 0.00000000
0.14567994 -0.24000449 10.54625584 0.00000000 0.00000000 0.00000000
-0.50089317 0.23639532 10.25890666 0.00000000 0.00000000 0.00000000
-0.53635289 -0.37667605 10.79172165 0.00000000 0.00000000 0.00000000
0.37144202 0.27122477 10.88947472 0.00000000 0.00000000 0.00000000
-0.96944763 -0.30647521 10.58190461 0.00000000 0.00000000 0.00000000
0.90824565 0.32298384 10.16963821 0.00000000 0.00000000 0.00000000
-0.67552129 -0.35309121 10.67727350 0.00000000 0.00000000 0.00000000
0.82264675 -0.25736422 10.69865114 0.00000000 0.00000000 0.00000000
-0.13324936 -0.41067155 10.27035017 0.00000000 0.00000000 0.00000000
0.43045461 -0.08174498 10.34879040 0.00000000 0.00000000 0.00000000
-0.05933380 -0.01542685 10.71447288 0.00000000 0.00000000 0.00000000
-0.59315935 -0.28913463 10.29261391 0.00000000 0.00000000 0.00000000
0.88763783 0.02875206 10.47523644 0.00000000 0.00000000 0.00000000
0.13507860 -0.32936308 10.39780648 0.00000000 0.00000000 0.00000000
-0.51885084 0.06898767 10.76495925 0.00000000 0.00000000 0.00000000
0.35508091 0.25696256 10.42535234 0.00000000 0.00000000 0.00000000
-0.40557021 -0.13584179 10.07799705 0.00000000 0.00000000 0.00000000
0.16449259 -0.32242035 10.56259745 0.00000000 0.00000000 0.00000000
-0.00428460 0.40211450 10.01349875 0.00000000 0.00000000 0.00000000
-0.74244692 -0.34509807 10.72563711 0.00000000 0.00000000 0.00000000
0.49542669 -0.15157902 10.21224535 0.00000000 0.00000000 0.00000000
-0.79757626 -0.37561618 10.48348295 0.00000000 0.00000000 0.00000000
-0.78104790 0.21286674 10.46750469 0.00000000 0.00000000 0.00000000
0.10403081 0.37509248 10.64199765 0.00000000 0.00000000 0.00000000
-0.76222150 0.18891816 10.02889384 0.00000000 0.00000000 0.00000000
0.76332046 0.24528983 10.29065018 0.00000000 0.00000000 0.00000000
-0.97720873 -0.21918804 10.71145259 0.00000000 0.00000000 0.00000000
-0.92890336 0.12145170 10.68881949 0.00000000 0.00000000 0.00000000
-0.46211911 -0.29595688 10.33778677 0.00000000 0.00000000 0.00000000
0.02654801 0.34753767 10.30396404 0.00000000 0.00000000 0.00000000
0.40671268 -0.43329980 10.17423777 0.00000000 0.00000000 0.00000000
-0.01562739 -0.25382271 10.92750710 0.00000000 0.00000000 0.00000000
0.74664136 0.32780994 10.90517198 0.00000000 0.00000000 0.00000000
-0.35260046 -0.36413039 10.68308300 0.00000000 0.00000000 0.00000000
-0.54327982 -0.01188979 10.47730288 0.00000000 0.00000000 0.00000000
-0.39335730 -0.09086999 10.76905934 0.00000000 0.00000000 0.00000000
-0.98458032 -0.17991918 10.60472783 0.00000000 0.00000000 0.00000000
-0.11524340 -0.05649109 10.34448938 0.00000000 0.00000000 0.00000000
0.65746441 -0.35974170 10.06902710 0.00000000 0.00000000 0.00000000
-0.13171608 -0.01701826 10.07426291 0.00000000 0.00000000 0.00000000
0.72820726 0.14122534 10.42791649 0.00000000 0.00000000 0.00000000
-0.30456076 -0.12101312 10.70944801 0.00000000 0.00000000 0.00000000
0.15928280 -0.44960149 10.49006036 0.00000000 0.00000000 0.00000000
0.46117562 0.01563048 10.14703661 0.00000000 0.00000000 0.00000000
-0.79065458 -0.33809942 10.98322004 0.00000000 0.00000000 0.00000000
0.08738452 0.11906998 10.91589393 0.00000000 0.00000000 0.00000000
-0.06043655 0.14604663 10.73758926 0.00000000 0.00000000 0.00000000
-0.11541372 0.17934716 10.66361989 0.00000000 0.00000000 0.00000000
0.41969313 -0.46706788 10.44175990 0.00000000 0.00000000 0.00000000
0.07584204 0.11411242 10.87740234 0.00000000 0.00000000 0.00000000
0.68504780 0.17480344 10.68065693 0.00000000 0.00000000 0.00000000
0.34540263 -0.07661539 10.26753853 0.00000000 0.00000000 0.00000000
0.37220696 -0.26590079 10.11396746 0.00000000 0.00000000 0.00000000
-0.28089926 0.39484216 10.17682400 0.00000000 0.00000000 0.00000000
-0.10812651 -0.36016059 10.35884879 0.00000000 0.00000000 0.00000000
0.50464615 -0.13801062 10.56986184 0.00000000 0.00000000 0.00000000
0.93520483 -0.17337558 10.66649594 0.00000000 0.00000000 0.00000000
0.80778889 -0.10215124 10.40633662 0.00000000 0.00000000 0.00000000
-0.91409209 -0.29766053 10.08350046 0.00000000 0.00000000 0.00000000
-0.36481039 0.15270410 10.68896455 0.00000000 0.00000000 0.00000000
-0.01840964 0.39481108 10.86558917 0.00000000 0.00000000 0.00000000
-0.60402809 -0.12172641 10.37354639 0.00000000 0.00000000 0.00000000
-0.66229654 -0.32232395 10.85629727 0.00000000 0.00000000 0.00000000
-0.56106937 0.28607562 10.66858560 0.00000000 0.00000000 0.00000000
-0.71249876 -0.25742920 10.28212897 0.00000000 0.00000000 0.00000000
0.08648188 -0.20920074 10.88512915 0.00000000 0.00000000 0.00000000
-0.03482818 0.48863905 10.83539945 0.00000000 0.00000000 0.00000000
-0.38627829 -0.26452844 10.87616072 0.00000000 0.00000000 0.00000000
-0.43145701 -0.30462736 10.38916565 0.00000000 0.00000000 0.00000000
-0.28641349 0.03194225 10.73363608 0.00000000 0.00000000 0.00000000
-0.16445349 -0.16959407 10.57442101 0.00000000 0.00000000 0.00000000
-0.03771779 0.05908694 10.13083360 0.00000000 0.00000000 0.00000000
0.56288187 0.06871360 10.86372753 0.00000000 0.00000000 0.00000000
0.09803307 -0.25222682 10.15082578 0.00000000 0.00000000 0.00000000
-0.52865844 -0.18964901 10.95828312 0.00000000 0.00000000 0.00000000
-0.36230237 -0.44845009 10.36849231 0.00000000 0.00000000 0.00000000
-0.48359377 -0.29856729 10.82062074 0.00000000 0.00000000 0.00000000
-0.16131035 -0.01183813 10.08323960 0.00000000 0.00000000 0.00000000
-0.76649139 0.26829904 10.07934932 0.00000000 0.00000000 0.00000000
-0.54548418 0.43654327 10.61906599 0.00000000 0.00000000 0.00000000
0.02782266 0.01968377 10.99592123 0.00000000 0.00000000 0.00000000
0.23009885 -0.48017639 10.42852389 0.00000000 0.00000000 0.00000000
-0.47854329 -0.04214411 10.15144894 0.00000000 0.00000000 0.00000000
0.90001609 -0.17247551 10.07205614 0.00000000 0.00000000 0.00000000
0.83472346 0.33258729 10.32580097 0.00000000 0.00000000 0.00000000
0.78581414 0.09193688 10.83408398 0.00000000 0.00000000 0.00000000
0.34738103 0.12211235 10.83061765 0.00000000 0.00000000 0.00000000
-0.93440875 -0.16353863 10.09029381 0.00000000 0.00000000 0.00000000
0.81947941 0.30210697 10.57474444 0.00000000 0.00000000 0.00000000
0.32667460 -0.10887975 10.45820644 0.00000000 0.00000000 0.00000000
0.20003168 0.41845368 10.01363199 0.00000000 0.00000000 0.00000000
0.12655974 -0.24427523 10.75714219 0.00000000 0.00000000 0.00000000
0.31921005 -0.40296992 10.92204410 0.00000000 0.00000000 0.00000000
-0.76724570 0.31902548 10.43833166 0.00000000 0.00000000 0.00000000
0.33463458 -0.07650464 10.86019090 0.00000000 0.00000000 0.00000000
0.66300378 0.39077910 10.87748552 0.00000000 0.00000000 0.00000000
-0.68858599 -0.31647170 10.26359935 0.00000000 0.00000000 0.00000000
0.18828803 -0.44360739 10.16688672 0.00000000 0.00000000 0.00000000
-0.42321902 -0.17271685 10.37993363 0.00000000 0.00000000 0.00000000
0.56947706 0.20078484 10.98935761 0.00000000 0.00000000 0.00000000
-0.89983901 0.28347275 10.70509420 0.00000000 0.00000000 0.00000000
0.17525282 -0.19330246 10.13631967 0.00000000 0.00000000 0.00000000
0.63689620 0.38700368 10.34157582 0.00000000 0.00000000 0.00000000
-0.47864661 -0.43417493 10.35748222 0.00000000 0.00000000 0.00000000
0.37178086 -0.35088448 10.63116112 0.00000000 0.00000000 0.00000000
-0.22473723 -0.15327014 10.36377399 0.00000000 0.00000000 0.00000000
0.08307705 0.41692609 10.78790771 0.00000000 0.00000000 0.00000000
-0.80435080 0.08305712 10.33032496 0.00000000 0.00000000 0.00000000
-0.70181929 -0.02134861 10.66841614 0.00000000 0.00000000 0.00000000
0.27872662 -0.30157413 10.37609825 0.00000000 0.00000000 0.00000000
0.71230964 -0.34038383 10.03496306 0.00000000 0.00000000 0.00000000
0.04731340 0.30020613 10.54576659 0.00000000 0.00000000 0.00000000
-0.24132853 0.10691942 10.01168584 0.00000000 0.00000000 0.00000000
-0.07258346 -0.04779264 10.41766335 0.00000000 0.00000000 0.00000000
0.09556241 -0.39442361 10.06120814 0.00000000 0.00000000 0.00000000
0.06130848 -0.26861228 10.24560897 0.00000000 0.00000000 0.00000000
-0.10831277 -0.02401337 10.87001191 0.00000000 0.00000000 0.00000000
-0.81009792 0.31923961 10.45895866 0.00000000 0.00000000 0.00000000
-0.90759174 0.17122012 10.29263929 0.00000000 0.00000000 0.00000000
-0.17343278 -0.01692523 10.16623988 0.00000000 0.00000000 0.00000000
0.92117255 -0.19015052 10.17203190 0.00000000 0.00000000 0.00000000
0.92084341 -0.31016000 10.75295368 0.00000000 0.00000000 0.00000000
0.78424563 0.03070489 10.51250193 0.00000000 0.00000000 0.00000000
0.50880779 -0.17534155 10.30044816 0.00000000 0.00000000 0.00000000
0.60747649 0.05553079 10.73638969 0.00000000 0.00000000 0.00000000
-0.99021210 0.05216014 10.41104954 0.00000000 0.00000000 0.00000000
0.19785954 0.10132734 10.68783848 0.00000000 0.00000000 0.00000000
-0.49540343 0.44079014 10.04235652 0.00000000 0.00000000 0.00000000
-0.85079642 0.00304079 10.38419154 0.00000000 0.00000000 0.00000000
-0.06621791 0.25574881 10.94943030 0.00000000 0.00000000 0.00000000
-0.10532707 0.01186529 10.37168511 0.00000000 0.00000000 0.00000000
0.19170288 -0.01450842 10.66933966 0.00000000 0.00000000 0.00000000
0.04122590 0.23799874 10.62665910 0.00000000 0.00000000 0.00000000
0.49809013 0.33647864 10.08442916 0.00000000 0.00000000 0.00000000
0.87740038 -0.32193618 10.66291014 0.00000000 0.00000000 0.00000000
0.76722992 -0.07645107 10.88312046 0.00000000 0.00000000 0.00000000
-0.05731579 -0.14101403 10.68371487 0.00000000 0.00000000 0.00000000
0.53534241 -0.33776773 10.97467406 0.00000000 0.00000000 0.00000000
-0.66851074 0.04197911 10.88919532 0.00000000 0.00000000 0.00000000
-0.98637450 -0.18449366 10.58382111 0.00000000 0.00000000 0.00000000
0.99808516 -0.33990193 10.31045127 0.00000000 0.00000000 0.00000000
-0.03506881 -0.05267665 10.47215545 0.00000000 0.00000000 0.00000000
-0.48785207 -0.30669813 10.13071874 0.00000000 0.00000000 0.00000000
0.44363275 0.08159090 10.30093548 0.00000000 0.00000000 0.00000000
0.49620338 -0.27211169 10.80700551 0.00000000 0.00000000 0.00000000
0.69682990 -0.21672377 10.70056344 0.00000000 0.00000000 0.00000000
-0.99430062 0.33069960 10.29530712 0.00000000 0.00000000 0.00000000
-0.61916743 -0.30148646 10.81200716 0.00000000 0.00000000 0.00000000
0.13121020 -0.16252991 10.56161417 0.00000000 0.00000000 0.00000000
0.88261841 -0.31231206 10.62227437 0.00000000 0.00000000 0.00000000
0.68446269 -0.30510971 10.52842857 0.00000000 0.00000000 0.00000000
-0.02287298 -0.17427753 10.67020323 0.00000000 0.00000000 0.00000000
0.92526067 0.31439746 10.39759813 0.00000000 0.00000000 0.00000000
0.22664977 0.19906244 10.36370668 0.00000000 0.00000000 0.00000000
0.23946056 0.45065155 10.46299605 0.00000000 0.00000000 0.00000000
-0.73117442 -0.20161952 10.29223765 0.00000000 0.00000000 0.00000000
0.56467003 -0.11242074 10.55524198 0.00000000 0.00000000 0.00000000
0.09022328 0.22186757 10.20218461 0.00000000 0.00000000 0.00000000
-0.63431210 0.16845734 10.16852005 0.00000000 0.00000000 0.00000000
-0.10267983 -0.28629027 10.67060421 0.00000000 0.00000000 0.00000000
-0.57248181 -0.35516282 10.12586955 0.00000000 0.00000000 0.00000000
0.34240142 -0.25245031 10.26985769 0.00000000 0.00000000 0.00000000
-0.38840779 -0.26338273 10.49249758 0.00000000 0.00000000 0.00000000
0.69019977 0.29233092 10.53659171 0.00000000 0.00000000 0.00000000
-0.76194040 0.10004479 10.45874001 0.00000000 0.00000000 0.00000000
0.75537011 -0.26883309 10.77729080 0.00000000 0.00000000 0.00000000
-0.40204052 -0.31702996 10.79402919 0.00000000 0.00000000 0.00000000
-0.28948982 0.34162138 10.42744780 0.00000000 0.00000000 0.00000000
-0.66323245 0.35875021 10.34184132 0.00000000 0.00000000 0.00000000
-0.90577195 -0.12377364 10.27641542 0.00000000 0.00000000 0.00000000
-0.41391741 0.37265236 10.29003888 0.00000000 0.00000000 0.00000000
0.44427621 0.35680512 10.11556409 0.00000000 0.00000000 0.00000000
-0.35223271 0.37034304 10.27703449 0.00000000 0.00000000 0.00000000
0.98437632 -0.00062892 10.18537500 0.00000000 0.00000000 0.00000000
0.81052469 0.13507928 10.53270189 0.00000000 0.00000000 0.00000000
-0.60965621 0.03734227 10.38823545 0.00000000 0.00000000 0.00000000
-0.60024451 -0.41184871 10.65499418 0.00000000 0.00000000 0.00000000
0.72841220 -0.34259403 10.86949411 0.00000000 0.00000000 0.00000000
0.12494900 0.36070155 10.07026388 0.00000000 0.00000000 0.00000000
-0.12445201 0.44369054 10.92597246 0.00000000 0.00000000 0.00000000
-0.06969668 -0.07836948 10.24874617 0.00000000 0.00000000 0.00000000
0.14506777 -0.41511562 10.68368433 0.00000000 0.00000000 0.00000000
-0.54099759 -0.18655080 10.07747280 0.00000000 0.00000000 0.00000000
-0.48549038 0.43591525 10.30640906 0.00000000 0.00000000 0.00000000
0.15716736 -0.43086243 10.21724671 0.00000000 0.00000000 0.00000000
0.04740506 0.12962324 10.31934500 0.00000000 0.00000000 0.00000000
0.43218602 -0.41635681 10.90610095 0.00000000 0.00000000 0.00000000
0.75175588 0.00167450 10.11440404 0.00000000 0.00000000 0.00000000
-0.21417550 0.43840289 10.92221063 0.00000000 0.00000000 0.00000000
0.38637907 0.03841714 10.36735943 0.00000000 0.00000000 0.00000000
-0.14550148 0.18722080 10.88608672 0.00000000 0.00000000 0.00000000
0.87653323 0.06342432 10.32197471 0.00000000 0.00000000 0.00000000
-0.97975535 0.16446736 10.94149734 0.00000000 0.00000000 0.00000000
-0.61073837 0.21875498 10.05313458 0.00000000 0.00000000 0.00000000
-0.43751604 0.05438864 10.15368088 0.00000000 0.00000000 0.00000000
0.92635678 0.34140495 10.28774125 0.00000000 0.00000000 0.00000000
-0.80432073 0.16351609 10.58843110 0.00000000 0.00000000 0.00000000
0.20024256 0.38428635 10.84433840 0.00000000 0.00000000 0.00000000
-0.85656056 -0.27394074 10.08585509 0.00000000 0.00000000 0.00000000
0.65219822 0.14940808 10.01459830 0.00000000 0.00000000 0.00000000
0.63012954 -0.01493134 10.86701632 0.00000000 0.00000000 0.00000000
0.64330419 -0.01725907 10.37512206 0.00000000 0.00000000 0.00000000
0.62846460 -0.23914919 10.47738390 0.00000000 0.00000000 0.00000000
0.92663533 -0.11899261 10.88411829 0.00000000 0.00000000 0.00000000
-0.50780946 0.38757978 10.24625959 0.00000000 0.00000000 0.00000000
0.80277689 0.09775601 10.97746676 0.00000000 0.00000000 0.00000000
0.17398727 0.29820519 10.19978996 0.00000000 0.00000000 0.00000000
-0.71782813 -0.06800995 10.68646031 0.00000000 0.00000000 0.00000000
0.27940569 0.42882751 10.02742996 0.00000000 0.00000000 0.00000000
-0.88678133 0.08853120 10.30667807 0.00000000 0.00000000 0.00000000
-0.45970004 0.15016697 10.26529287 0.00000000 0.00000000 0.00000000
0.96809706 0.31044601 10.83131043 0.00000000 0.00000000 0.00000000
0.16257998 0.38975231 10.16314248 0.00000000 0.00000000 0.00000000
-0.06783941 -0.39211831 10.32769860 0.00000000 0.00000000 0.00000000
0.24640600 -0.47822598 10.84799252 0.00000000 0.00000000 0.00000000
-0.78783625 0.06588197 10.24210465 0.00000000 0.00000000 0.00000000
-0.75161284 -0.07316863 10.39747394 0.00000000 0.00000000 0.00000000
-0.11160868 -0.39647441 10.65413851 0.00000000 0.00000000 0.00000000
0.41497951 0.34993335 10.30752603 0.00000000 0.00000000 0.00000000
0.13873088 0.08964617 10.84005455 0.00000000 0.00000000 0.00000000
0.42408298 -0.35676937 10.74736288 0.00000000 0.00000000 0.00000000
-0.70815039 0.10797637 10.66496210 0.00000000 0.00000000 0.00000000
0.92609777 0.07939033 10.57237817 0.00000000 0.00000000 0.00000000
-0.52534828 -0.06858370 10.65306396 0.00000000 0.00000000 0.00000000
0.79240604 -0.12323199 10.61530959 0.00000000 0.00000000 0.00000000
0.62223018 0.40804848 10.79425606 0.00000000 0.00000000 0.00000000
0.92504780 0.27509478 10.17786754 0.00000000 0.00000000 0.00000000
0.62627823 0.18283087 10.42737281 0.00000000 0.00000000 0.00000000
0.87573880 0.13110258 10.69866263 0.00000000 0.00000000 0.00000000
-0.72744529 0.11860054 10.19769898 0.00000000 0.00000000 0.00000000
-0.77443238 -0.33600022 10.82393551 0.00000000 0.00000000 0.00000000
-0.75053464 0.29943693 10.76247608 0.00000000 0.00000000 0.00000000
-0.60392939 0.40474035 10.76724900 0.00000000 0.00000000 0.00000000
-0.67608430 0.29104419 10.64642751 0.00000000 0.00000000 0.00000000
-0.74987777 0.24666717 10.25725302 0.00000000 0.00000000 0.00000000
0.07004484 0.09484251 10.41475294 0.00000000 0.00000000 0.00000000
0.10719122 -0.22925684 10.45085588 0.00000000 0.00000000 0.00000000
0.60924777 -0.17597207 10.84889305 0.00000000 0.00000000 0.00000000
-0.28852762 0.43060277 10.75029459 0.00000000 0.00000000 0.00000000
-0.26494797 -0.34803958 10.43047441 0.00000000 0.00000000 0.00000000
0.05540675 0.37555129 10.87285234 0.00000000 0.00000000 0.00000000
-0.99327612 0.15509564 10.02549753 0.00000000 0.00000000 0.00000000
0.58355043 0.15305778 10.04335639 0.00000000 0.00000000 0.00000000
-0.74663214 -0.33001170 10.34336340 0.00000000 0.00000000 0.00000000
-0.87245188 -0.33077815 10.50995228 0.00000000 0.00000000 0.00000000
-0.14348049 -0.12998685 10.69073181 0.00000000 0.00000000 0.00000000
0.61353667 0.30407351 10.74421955 0.00000000 0.00000000 0.00000000
-0.24025152 0.08590023 10.03599019 0.00000000 0.00000000 0.00000000
-0.49564644 0.14205674 10.23495434 0.00000000 0.00000000 0.00000000
0.56526904 -0.19092249 10.29843778 0.00000000 0.00000000 0.00000000
-0.20831772 -0.22137099 10.98179786 0.00000000 0.00000000 0.00000000
-0.75709675 -0.08095745 10.34596286 0.00000000 0.00000000 0.00000000
-0.81581071 0.34161357 10.57540302 0.00000000 0.00000000 0.00000000
0.68620766 -0.33923349 10.59883748 0.00000000 0.00000000 0.00000000
0.38345748 0.10245994 10.45172453 0.00000000 0.00000000 0.00000000
0.35543703 0.44039456 10.90193127 0.00000000 0.00000000 0.00000000
-0.86725309 0.05309908 10.21762819 0.00000000 0.00000000 0.00000000
0.20415496 0.15729540 10.36037807 0.00000000 0.00000000 0.00000000
0.95965430 0.15447826 10.96143066 0.00000000 0.00000000 0.00000000
0.95832515 -0.35369846 10.83791790 0.00000000 0.00000000 0.00000000
-0.65315691 -0.33601086 10.12687626 0.00000000 0.00000000 0.00000000
0.49957818 0.44524507 10.27359419 0.00000000 0.00000000 0.00000000
0.20867184 -0.18497834 10.43269589 0.00000000 0.00000000 0.00000000
-0.46770737 -0.28353379 10.57865786 0.00000000 0.00000000 0.00000000
-0.39655049 0.01320902 10.91207014 0.00000000 0.00000000 0.00000000
-0.29601538 -0.26356738 10.24225187 0.00000000 0.00000000 0.00000000
0.65946400 0.18131781 10.79267524 0.00000000 0.00000000 0.00000000
-0.20265925 0.09084154 10.38188263 0.00000000 0.00000000 0.00000000
-0.51836111 -0.22325453 10.57870043 0.00000000 0.00000000 0.00000000
0.68360574 0.17909790 10.16647418 0.00000000 0.00000000 0.00000000
-0.18637426 0.37087977 10.64183366 0.00000000 0.00000000 0.00000000
-0.05503729 -0.14068486 10.88628152 0.00000000 0.00000000 0.00000000
0.76321096 0.31181804 10.21288044 0.00000000 0.00000000 0.00000000
0.93925736 0.16132040 10.60881635 0.00000000 0.00000000 0.00000000
-0.04919029 0.41323626 10.00325068 0.00000000 0.00000000 0.00000000
0.52427096 0.03887055 10.64472736 0.00000000 0.00000000 0.00000000
-0.88440401 0.18296344 10.29016511 0.00000000 0.00000000 0.00000000
0.14912249 -0.14956440 10.00950888 0.00000000 0.00000000 0.00000000
0.75291952 -0.32858505 10.98428648 0.00000000 0.00000000 0.00000000
-0.76653096 0.01044138 10.33673059 0.00000000 0.00000000 0.00000000
0.49588687 -0.16610730 10.71783413 0.00000000 0.00000000 0.00000000
-0.03343010 0.35586098 10.20645047 0.00000000 0.00000000 0.00000000
-0.28962050 0.25506577 10.08246962 0.00000000 0.00000000 0.00000000
0.95444829 -0.22464512 10.35045367 0.00000000 0.00000000 0.00000000
0.59314608 0.36631693 10.12924549 0.00000000 0.00000000 0.00000000
0.41347991 0.00718727 10.64361617 0.00000000 0.00000000 0.00000000
0.24014127 -0.18532844 10.97502742 0.00000000 0.00000000 0.00000000
0.86725033 0.07789183 10.66190354 0.00000000 0.00000000 0.00000000
-0.04351200 0.48498949 10.69264259 0.00000000 0.00000000 0.00000000
0.91040536 -0.25980211 10.82452227 0.00000000 0.00000000 0.00000000
0.96544129 -0.06744596 10.90491091 0.00000000 0.00000000 0.00000000
-0.46948867 -0.26905329 10.82812509 0.00000000 0.00000000 0.00000000
0.08918070 0.33174919 10.05462192 0.00000000 0.00000000 0.00000000
-0.93293602 -0.03834923 10.37562685 0.00000000 0.00000000 0.00000000
-0.64420176 0.42369787 10.81031726 0.00000000 0.00000000 0.00000000
-0.42841892 0.01532439 10.86335202 0.00000000 0.00000000 0.00000000
0.27749435 0.30770552 10.98144120 0.00000000 0.00000000 0.00000000
0.32447515 0.08225795 10.59847135 0.00000000 0.00000000 0.00000000
0.23187006 -0.39609035 10.27037647 0.00000000 0.00000000 0.00000000
0.96502239 0.02683047 10.84539643 0.00000000 0.00000000 0.00000000
-0.48249459 0.37360205 10.84787909 0.00000000 0.00000000 0.00000000
0.20289778 0.05261460 10.80676614 0.00000000 0.00000000 0.00000000
0.53782979 0.40988560 10.84985611 0.00000000 0.00000000 0.00000000
0.68822830 0.03919370 10.64308499 0.00000000 0.00000000 0.00000000
0.61090539 0.15061367 10.08613036 0.00000000 0.00000000 0.00000000
-0.90799573 0.34389589 10.23615781 0.00000000 0.00000000 0.00000000
0.71203510 -0.05217914 10.15463375 0.00000000 0.00000000 0.00000000
0.37358585 -0.39717174 10.55775215 0.00000000 0.00000000 0.00000000
-0.61006693 -0.36659902 10.22535642 0.00000000 0.00000000 0.00000000
0.20676920 0.35202931 10.88495430 0.00000000 0.00000000 0.00000000
0.43849658 -0.14159151 10.38436035 0.00000000 0.00000000 0.00000000
0.54833381 0.16686407 10.63028063 0.00000000 0.00000000 0.00000000
0.45304187 0.24728762 10.00468863 0.00000000 0.00000000 0.00000000
0.43442640 -0.40009286 10.28247079 0.00000000 0.00000000 0.00000000
-0.63502868 0.00805164 10.72105107 0.00000000 0.00000000 0.00000000
-0.36065710 0.20505119 10.90917153 0.00000000 0.00000000 0.00000000
-0.92415201 0.11216702 10.31002858 0.00000000 0.00000000 0.00000000
-0.85842901 -0.12223687 10.25587939 0.00000000 0.00000000 0.00000000
-0.84944735 0.38670169 10.87993503 0.00000000 0.00000000 0.00000000
-0.84514255 -0.36192503 10.17814551 0.00000000 0.00000000 0.00000000
0.96533908 -0.01098759 10.04980095 0.00000000 0.00000000 0.00000000
0.90110076 0.31490291 10.88612165 0.00000000 0.00000000 0.00000000
-0.67094963 -0.05191754 10.86720194 0.00000000 0.00000000 0.00000000
-0.79642639 0.35223760 10.46772954 0.00000000 0.00000000 0.00000000
-0.69819259 0.34085208 10.42472398 0.00000000 0.00000000 0.00000000
-0.02055246 -0.01224892 10.65230920 0.00000000 0.00000000 0.00000000
0.98709839 -0.31140829 10.15727768 0.00000000 0.00000000 0.00000000
-0.70166907 -0.01671658 10.51334883 0.00000000 0.00000000 0.00000000
0.87524498 -0.24966826 10.89612119 0.00000000 0.00000000 0.00000000
0.08025178 -0.24569460 10.24794068 0.00000000 0.00000000 0.00000000
0.85628607 0.27753703 10.10044357 0.00000000 0.00000000 0.00000000
-0.19092978 -0.39124203 10.23349650 0.00000000 0.00000000 0.00000000
-0.12698706 0.45167100 10.66673448 0.00000000 0.00000000 0.00000000
0.42624915 0.10810814 10.19750286 0.00000000 0.00000000 0.00000000
0.73493455 0.25721838 10.85743115 0.00000000 0.00000000 0.00000000
-0.72876397 -0.07443119 10.90127888 0.00000000 0.00000000 0.00000000
-0.67060561 0.16720446 10.53808945 0.00000000 0.00000000 0.00000000
0.28407866 -0.03093414 10.01208163 0.00000000 0.00000000 0.00000000
